ply
format ascii 1.0
element vertex 1910
property float x
property float y
property float z
end_header
13.365 -18.8504 39.7567 
15.0071 -18.7051 37.8482 
14.2073 -19.1491 38.4536 
15.5251 -18.602 37.1881 
15.3468 -17.8488 38.3509 
-19.3646 -18.0967 37.8122 
-19.1075 -18.125 38.1844 
-19.9911 -17.5757 37.7759 
-18.2944 -18.6913 38.3772 
-18.0906 -18.392 39.16 
14.7441 -18.4056 38.5731 
15.1625 -17.3241 39.215 
16.1498 -17.3423 37.687 
15.5654 -16.8962 39.103 
-22.7197 -15.2758 37.0776 
-21.4239 -15.9771 38.1778 
-21.1623 -15.7818 38.8359 
16.3306 -16.3162 38.5536 
-22.3492 -14.0185 39.2739 
-22.7298 -14.4355 38.2333 
-21.7608 -15.1523 38.8121 
-21.992 -15.3804 38.1494 
16.5251 -13.8875 40.6503 
16.7351 -14.7713 39.4733 
17.2759 -13.6471 39.6334 
17.2566 -14.3917 38.9912 
-24.5015 -12.3457 37.8129 
-23.4481 -12.9309 38.8218 
-23.2539 -13.824 38.1527 
-22.8698 -13.6266 38.9345 
18.0773 -12.9565 38.885 
-25.1938 -11.0917 37.9012 
-24.8151 -11.8293 37.8273 
-24.7346 -11.0282 38.6497 
-24.2241 -11.5419 38.9779 
-23.4991 -12.3788 39.2532 
18.2761 -11.8953 39.4489 
18.8806 -11.2385 38.8645 
18.0876 -11.0721 40.4974 
19.7321 -10.3516 37.9061 
-25.0177 -10.4369 38.6859 
19.0788 -10.1804 39.2948 
18.5207 -9.8144 40.6961 
-27.4615 -7.5473 36.8345 
-25.3561 -8.3242 39.4415 
-25.1351 -7.5319 40.0762 
-25.7787 -7.8334 39.1308 
-24.7006 -9.8661 39.505 
-24.1017 -10.0604 40.161 
-24.5433 -9.4643 39.9703 
19.873 -8.0834 39.1107 
19.4947 -9.4646 38.988 
-26.7757 -7.8535 37.7266 
-26.4871 -7.3152 38.405 
-27.5672 -7.0345 36.955 
-25.9212 -6.9945 39.2853 
20.4607 -6.8529 38.6203 
19.6229 -7.2966 40.1333 
-25.2309 -5.8807 40.4488 
-25.8761 -4.9357 39.8895 
-25.9102 -5.979 39.6113 
20.4154 -4.9919 39.7334 
19.976 -4.8585 40.8187 
20.1482 -5.9509 39.8121 
21.5573 -6.0289 36.8544 
-27.3504 -3.7691 38.1677 
-26.9944 -4.9786 38.4332 
-26.4133 -3.9294 39.3569 
-26.0439 -5.1817 39.6338 
-26.0438 -3.9471 39.8119 
20.8963 -4.5873 38.8296 
-27.5802 -1.5773 38.1416 
-27.2178 -2.3559 38.6 
-26.64 -1.6105 39.3064 
21.1527 -3.7023 38.5471 
20.7818 -2.2213 39.7566 
-27.5516 -2.4993 38.1097 
-26.4285 0.1299 39.3823 
-27.4826 -0.745 38.204 
-26.1664 1.1701 39.5045 
-25.9462 0.7347 39.8365 
-25.88 1.6024 39.7409 
-26.57 1.6794 38.8997 
-26.0797 2.4344 39.277 
-25.3975 2.3467 40.0985 
21.1676 1.0983 38.581 
-27.0027 2.8726 38.0086 
-24.4609 3.9448 40.6538 
-25.2689 4.5269 39.5547 
-24.8945 3.439 40.3389 
19.9774 4.8031 40.582 
20.5326 3.7714 39.5678 
20.4164 5.2124 39.3294 
20.749 5.1546 38.573 
20.4437 6.1007 38.8752 
-25.9392 4.6877 38.7067 
-26.5061 5.2879 37.7459 
-24.9086 5.2177 39.7121 
20.0161 5.8592 40.02 
21.2719 4.1831 37.7074 
20.9724 5.1511 38.0441 
20.8678 4.3943 38.5521 
-24.4332 7.7842 39.0073 
20.3064 7.3284 38.4745 
20.1947 6.8228 39.0788 
20.7946 6.7946 37.6853 
20.8673 6.0186 37.9241 
-25.6203 6.9601 38.0771 
-23.7163 10.0785 38.5587 
19.6035 8.3833 39.298 
-24.2997 8.4411 38.7814 
-22.0905 10.9717 39.7912 
-22.93 10.911 38.9609 
-22.9778 10.0826 39.3779 
19.017 10.3652 38.8512 
19.4216 9.1349 39.0883 
-22.2005 11.8278 39.1537 
-22.8346 12.241 38.2315 
18.0274 11.8232 39.4081 
18.3715 12.3615 38.002 
17.8933 12.4957 38.8903 
-23.3144 12.851 37.31 
-22.1781 12.8896 38.4847 
-21.0106 13.9967 38.8851 
-21.6838 13.5192 38.5686 
-20.3201 13.5393 39.8097 
16.8305 13.547 39.7144 
17.4869 12.6905 39.5215 
18.6548 13.0817 36.4006 
-21.1227 14.3482 38.5217 
-20.4405 14.49 39.0329 
16.2821 14.7838 38.9519 
15.9966 14.4269 40.1011 
16.5642 14.4326 38.9574 
17.8825 14.6215 35.8058 
-20.765 15.7924 37.7793 
-21.1456 16.1239 37.1255 
-18.8124 15.9082 39.3185 
-19.0821 16.6194 38.5248 
-19.9975 15.2777 38.8243 
-17.8226 16.5578 39.4737 
-18.342 16.5834 39.1017 
-18.2384 16.1619 39.5342 
15.6371 15.6378 38.8836 
16.0109 15.2132 38.8311 
-19.6453 17.6792 37.0801 
-19.2466 17.2533 37.8259 
-16.863 18.3572 38.4219 
-16.288 19.3124 37.8408 
13.0206 18.1546 38.8027 
13.491 17.6428 39.0255 
14.2432 16.9964 38.9992 
14.7887 17.1752 37.7753 
-17.5969 19.5062 36.795 
-15.6225 19.7423 37.8932 
-16.5187 19.6744 37.3486 
-15.3754 20.1469 37.6383 
-14.2313 19.1704 39.203 
-14.8937 19.2783 38.7751 
-14.9155 18.4795 39.5611 
11.7432 19.0463 38.9265 
11.1701 19.3677 38.9966 
11.2983 18.7605 40.0221 
-15.8205 20.5191 36.9722 
-14.1383 19.7638 38.6406 
-12.8268 20.7879 38.0685 
-12.1834 20.2293 38.9224 
-11.3471 21.385 37.9449 
-9.6887 21.3679 38.5291 
-10.544 20.4614 39.2535 
-9.4055 21.1883 38.7981 
-9.3666 20.6042 39.4701 
6.9112 20.6327 40.0241 
7.7548 20.0954 40.4516 
7.3934 21.0789 38.8537 
10.7615 19.1722 39.8478 
9.5227 20.7574 37.6934 
11.5362 19.8717 37.6177 
-12.7364 21.4407 37.3645 
-10.9145 22.4176 36.8408 
-8.6842 21.853 38.2309 
-7.3438 22.3709 37.9236 
-6.4758 22.0786 38.4812 
-5.3246 22.1095 38.6643 
-3.7702 21.7942 39.3392 
-4.2632 22.7072 38.0378 
-1.7131 22.5702 38.4904 
-2.8638 22.8174 38.0517 
-2.3424 21.645 39.7492 
-0.7746 22.1929 39.0956 
-1.4831 21.3888 40.2116 
-0.2416 21.901 39.5262 
1.5917 22.5025 38.5043 
1.0799 22.0935 39.2177 
2.8906 21.9906 39.1188 
2.1679 22.4688 38.4715 
2.1095 21.6655 39.8024 
2.8239 21.5196 39.9522 
3.9507 21.8133 39.1575 
5.439 22.2573 37.7977 
4.3497 21.3086 39.9616 
6.2771 21.1115 39.494 
8.5559 20.7996 38.4688 
-7.1429 23.8438 35.9813 
-2.0062 22.9445 37.9306 
-0.6424 22.8205 38.1471 
3.1556 23.0102 37.294 
2.285 22.8864 37.7458 
-7.7671 -22.8979 40.2487 
-6.7865 -23.388 39.9332 
-5.1363 -22.9485 41.0428 
-6.0519 -23.2425 40.3903 
-1.3062 -24.1919 39.6867 
-1.1572 -23.0014 41.2472 
1.6453 -23.5856 40.2254 
1.1082 -22.9196 41.1497 
3.5328 -22.7558 40.9065 
4.9987 -23.6224 39.5359 
6.1487 -23.1759 39.7342 
6.8886 -23.4281 39.1849 
7.6429 -22.9472 39.4357 
-9.9507 -22.4952 39.6135 
-9.9976 -21.5151 41.205 
-9.1849 -22.2629 40.4896 
-6.149 -22.6093 41.2654 
-7.1297 -22.1926 41.5656 
-4.5303 -22.6876 41.5037 
-5.3418 -22.3825 41.7961 
-3.0435 -23.4025 40.6915 
-3.2596 -22.841 41.4276 
2.3515 -22.7456 41.18 
1.4431 -22.5429 41.5747 
3.1612 -22.3195 41.5444 
2.144 -22.3223 41.7567 
4.4436 -22.0499 41.5552 
5.7522 -22.1328 41.0775 
7.13 -22.5854 40.0592 
8.7085 -22.447 39.514 
9.3566 -21.4401 40.2896 
8.0002 -22.1042 40.2397 
9.4675 -22.173 39.4241 
9.9357 -21.5967 39.6736 
10.4555 -23.1009 37.3542 
-12.5825 -21.0084 40.2128 
-13.7079 -20.0833 40.8442 
-10.5529 -21.3446 41.152 
7.086 -21.6388 41.1773 
7.8617 -21.2015 41.3675 
11.4988 -20.3671 39.8069 
10.7901 -20.1519 40.5962 
10.6033 -21.4745 39.2284 
12.3518 -20.7395 38.6543 
-17.3811 -18.2329 40.2694 
-16.3558 -18.9664 40.3247 
-15.4491 -19.4904 40.5299 
-15.7645 -19.7473 39.7557 
-16.6732 -18.3294 40.9299 
-15.8677 -18.4719 41.4963 
-14.58 -19.4395 41.2363 
-14.6588 -20.2235 39.9908 
11.7598 -19.6813 40.3497 
14.0151 -18.9236 38.9307 
13.9283 -18.1043 39.9539 
12.6983 -19.3362 39.8919 
-20.0809 -16.2457 39.6992 
-20.4914 -16.2484 39.1183 
-19.7941 -16.8754 39.2397 
-18.7873 -17.2029 40.0749 
-17.1273 -17.6569 41.3141 
-17.6281 -17.5905 40.9159 
13.1969 -18.5527 40.2769 
12.4657 -18.712 40.8225 
14.654 -17.904 39.2824 
13.9188 -17.244 40.8992 
-21.7991 -14.7303 39.251 
-18.9667 -16.5939 40.6917 
14.3663 -16.4434 41.2008 
14.8363 -16.8373 40.1882 
15.257 -15.7757 40.6703 
15.5382 -16.1984 39.8568 
16.1979 -15.7458 39.3447 
16.1779 -14.8628 40.2519 
-20.7918 -15.0575 40.169 
-22.1039 -13.3093 40.3017 
-22.5087 -12.372 40.5806 
-22.7713 -12.868 39.8347 
-22.5526 -13.4385 39.5666 
-21.8991 -14.0475 39.8494 
16.7832 -12.9951 41.0592 
17.4041 -12.1442 40.7824 
17.0103 -11.9857 41.6555 
17.1675 -13.1197 40.3027 
-24.5011 -10.5216 39.3362 
-22.9934 -13.0437 39.359 
-23.234 -11.9033 40.0069 
-24.1073 -12.0001 38.7425 
-23.7082 -10.5141 40.376 
18.4875 -8.7808 41.6289 
18.0901 -9.8579 41.5676 
18.9669 -9.1692 40.2758 
-24.8419 -7.7197 40.3533 
-24.0724 -9.4925 40.5322 
-23.8071 -9.032 41.0687 
-24.5758 -8.6415 40.3012 
18.9471 -7.8582 41.3074 
19.3332 -8.5709 39.9133 
-26.2577 -6.9928 38.8531 
-27.5801 -6.3502 37.2383 
-24.4637 -7.688 40.8095 
-24.6723 -6.9038 40.817 
-24.3449 -5.424 41.5319 
-24.5207 -5.7496 41.2522 
-23.6518 -6.404 42.0426 
-24.979 -6.755 40.5148 
19.5993 -5.7715 41.2143 
-25.422 -3.5678 40.5508 
-24.9575 -4.6985 40.9454 
20.3725 -3.9872 40.2292 
19.678 -3.7022 42.0851 
20.4878 -2.7827 40.3196 
-26.414 -2.3448 39.5899 
-25.9598 -1.6294 40.0997 
-25.8698 -2.6009 40.1773 
-25.0421 -1.6038 41.0741 
20.235 -0.9767 41.3263 
20.1985 -2.2134 41.1867 
20.5003 -1.608 40.5327 
-26.5571 -1.7628 39.4233 
-25.0531 -0.4029 40.9545 
-24.2068 -0.6125 41.8219 
19.8914 1.0532 41.7803 
19.7082 1.8769 42.1518 
19.6835 1.0812 42.3902 
20.7986 -1.3278 39.8705 
-25.9032 0.0627 40.0088 
-26.4975 -0.9556 39.4589 
-24.7267 0.666 41.128 
-24.5389 2.3139 40.9902 
-25.5788 0.9581 40.212 
20.4659 -0.2166 40.7208 
20.5571 0.3255 40.3551 
20.3555 0.0798 40.994 
20.8733 0.3902 39.5018 
20.7963 -0.257 39.9319 
20.3092 1.0034 40.7169 
20.4899 1.813 40.081 
-26.273 3.6152 38.7109 
-25.6404 3.4695 39.4872 
-23.1599 2.7915 42.1514 
-23.7942 3.7494 41.3604 
-24.1316 2.8244 41.2576 
20.0442 3.9662 40.7285 
20.4183 3.0503 40.0572 
-24.2132 4.8927 40.596 
19.6194 4.4448 41.6566 
-24.0126 6.9115 39.943 
-23.0899 5.5131 41.4762 
-22.3436 5.7921 41.9955 
-23.3911 6.5882 40.758 
-22.5613 8.3696 40.6884 
-23.1695 8.0773 40.2408 
-22.9843 7.8192 40.5635 
19.6943 5.4228 41.0104 
19.5764 6.4992 40.7967 
-22.2351 7.9513 41.2309 
19.0858 8.8713 40.093 
-22.9224 9.4644 39.7865 
-23.3949 9.804 39.0707 
-23.2328 8.7954 39.7914 
-20.8368 10.3165 41.3037 
-21.7472 10.2176 40.5696 
-20.8185 9.5069 41.6976 
-22.1102 9.3485 40.6463 
18.8594 11.1777 38.3306 
18.499 10.6789 39.6704 
19.1899 9.8461 38.9932 
18.7501 10.0419 39.7634 
-21.3955 11.0221 40.4329 
17.0479 12.7847 40.3311 
17.585 12.0294 40.1425 
-21.4286 12.6553 39.3694 
-21.7227 11.5109 39.8472 
-20.6766 12.4364 40.1946 
-19.776 13.2746 40.4383 
16.3812 13.7843 40.3042 
-19.56 14.0086 40.1244 
-18.9882 13.6125 40.8199 
-18.4977 15.1101 40.1657 
15.0029 15.4472 40.38 
15.4047 15.7318 39.1319 
14.771 16.6281 38.7626 
-19.324 15.269 39.4014 
-18.6411 15.5902 39.6931 
-17.6335 16.0681 40.0083 
14.0976 15.9467 41.1361 
14.0705 16.5294 40.1426 
13.0924 16.8065 41.2002 
-16.3896 17.742 39.3058 
-17.3834 17.1733 39.2173 
-15.6651 18.3938 39.1994 
-15.6946 18.917 38.6654 
-12.9705 17.8004 40.9514 
-13.4388 18.3804 40.27 
-13.9494 17.3253 40.9638 
12.2041 18.5145 39.3081 
11.615 18.3364 40.4118 
12.6263 17.9607 39.7787 
12.7198 17.5272 40.4122 
-14.0556 18.0415 40.3353 
-11.7826 19.6703 39.6575 
-11.3328 20.6414 38.779 
-10.9145 19.0058 40.6005 
-11.7052 17.9459 41.2949 
-10.0158 18.9948 40.8865 
-9.8771 19.9411 39.9996 
-8.7725 20.2857 39.982 
9.0691 19.9897 39.5724 
9.7091 19.4704 40.055 
9.6287 18.7961 41.4824 
10.1521 19.1942 40.3765 
10.8455 18.6867 40.6993 
11.2188 17.9109 41.8158 
-13.0819 19.964 38.8647 
-10.1713 21.6487 38.0326 
-8.0682 20.2867 40.1836 
-8.1777 20.8223 39.5487 
-6.6275 20.5261 40.2699 
-6.8514 21.4632 39.14 
-6.2297 20.0987 40.8672 
-6.3624 19.7465 41.2561 
-5.1007 20.2138 41.0622 
-3.8187 20.9752 40.4161 
-4.9789 20.9547 40.1721 
-2.7551 20.9934 40.6024 
-1.0275 21.0246 40.8581 
-1.998 20.4336 41.5852 
0.6204 20.8696 41.3001 
-0.3214 21.1648 40.7201 
-0.103 20.7257 41.4614 
0.7477 21.5198 40.1577 
2.1699 21.3629 40.336 
4.089 20.9209 40.786 
3.174 20.7948 41.2456 
3.6507 20.1941 42.3615 
5.093 21.1643 39.9606 
5.8456 21.3055 39.3766 
6.7543 19.9974 41.3685 
6.2296 20.3419 41.0317 
5.6693 19.8223 42.3977 
8.4929 19.4136 41.236 
-7.8033 21.8386 38.4693 
-5.9862 21.2989 39.5311 
6.0556 20.718 40.3832 
-2.159 -22.5473 41.875 
-7.9718 -21.6886 41.9822 
-9.1454 -21.5475 41.6025 
-7.9649 -22.4213 40.8807 
-7.1731 -21.6351 42.3345 
-6.4499 -22.0865 41.9159 
-5.6061 -21.436 43.0211 
-5.0899 -22.0033 42.3528 
-2.9133 -21.0103 43.9876 
-0.7665 -20.9534 44.0686 
-2.0346 -22.0017 42.6241 
-1.0768 -22.184 42.3424 
-0.1266 -22.5925 41.7015 
2.2867 -21.6397 42.6199 
5.2013 -21.5073 42.0267 
3.8512 -21.0315 43.0621 
3.4623 -21.8262 42.0977 
-12.5397 -20.1916 41.5213 
-12.8483 -20.4351 40.9571 
-11.8578 -20.6996 41.288 
-11.1541 -20.6879 41.7514 
-9.9049 -20.9926 42.0063 
-9.2012 -20.5287 42.9761 
-8.4461 -21.1235 42.5156 
-8.3226 -20.3699 43.5884 
4.474 -20.7612 43.2219 
5.7666 -20.8264 42.7003 
6.4006 -21.3661 41.7752 
7.0851 -20.4676 42.6091 
7.3174 -20.9294 41.928 
8.1748 -20.095 42.5337 
9.9373 -21.0034 40.2994 
9.8226 -20.3477 41.1823 
8.7702 -20.9722 41.179 
-15.2925 -18.9434 41.3972 
-13.0716 -19.7013 41.85 
-14.4249 -18.7085 42.2935 
-12.0123 -19.6666 42.5749 
-11.8905 -20.0642 42.1559 
8.7212 -20.2171 42.1051 
8.7053 -19.7442 42.6796 
9.4767 -20.2119 41.6825 
11.6353 -18.5888 41.6893 
10.985 -19.633 41.0266 
13.352 -18.0673 40.6477 
-18.6716 -16.9137 40.6433 
-18.4605 -16.6234 41.211 
-16.6093 -17.5503 41.9958 
-15.4476 -17.6923 42.8222 
-15.1998 -18.3183 42.2852 
-14.3868 -17.8755 43.4088 
12.1343 -17.8049 42.1431 
12.4695 -17.8518 41.7954 
12.8525 -17.2859 42.0475 
13.5278 -16.578 42.0998 
12.5552 -16.8693 42.8201 
13.334 -17.2537 41.5735 
-20.0728 -15.6235 40.4464 
-19.9804 -15.1085 41.1171 
-20.777 -14.6109 40.6794 
-18.2601 -17.0866 40.8843 
-17.7973 -16.9111 41.5482 
-17.244 -16.7921 42.21 
-18.7913 -15.8163 41.7041 
14.1363 -15.1055 43.0011 
14.3674 -15.6833 42.0353 
14.5722 -14.6316 42.8685 
14.8364 -15.6309 41.4268 
-21.3657 -13.6034 40.9322 
-21.3897 -14.0896 40.464 
-20.7178 -14.3654 40.9936 
-18.937 -16.1339 41.2281 
-19.482 -15.6299 41.1431 
-18.8801 -14.9713 42.4489 
-17.6303 -16.0653 42.6041 
14.7369 -14.9926 42.2806 
15.7467 -14.5537 41.216 
15.4199 -14.1047 42.1912 
-21.2262 -13.1001 41.5248 
-21.9605 -12.6405 41.0361 
-20.7415 -13.9412 41.362 
-20.1162 -14.3207 41.7146 
16.0947 -13.2892 41.9541 
-21.8101 -11.9151 41.7332 
-21.8956 -11.3186 42.0188 
-22.3617 -11.6974 41.241 
17.0587 -10.465 43.1523 
16.4018 -11.5333 43.2908 
17.5461 -10.9413 41.6504 
-22.6926 -11.0117 41.3159 
-21.5594 -11.4441 42.3041 
-21.3921 -10.9081 42.7705 
17.6892 -9.8439 42.4321 
-22.8928 -11.5753 40.6964 
18.2061 -8.9371 42.159 
18.3544 -7.8455 42.7408 
-23.3647 -8.2298 41.8652 
-24.0766 -6.8414 41.5085 
-22.9827 -7.6142 42.4435 
18.5875 -5.8781 43.7671 
19.0523 -6.6672 41.9447 
19.148 -5.5295 42.5074 
-24.3118 -4.375 41.6725 
-23.6291 -4.8084 42.2971 
-24.0828 -5.0912 41.8509 
19.5966 -4.8351 41.7817 
-24.8338 -3.1576 41.2097 
-24.1742 -2.5655 41.9349 
-23.114 -3.3375 42.8495 
19.734 -2.2181 42.4426 
-23.3999 -0.9109 42.5755 
-23.4986 -1.8026 42.5761 
-22.6722 -1.2691 43.1911 
19.7935 -1.0087 42.5634 
-23.2684 0.0371 42.5728 
-23.9757 0.2939 41.916 
-23.2023 0.921 42.496 
-24.0215 1.5417 41.6457 
19.8191 0.1416 42.499 
19.6564 -0.5404 43.0679 
20.0381 -0.3224 41.959 
-22.7512 1.7837 42.7069 
-22.1231 1.4736 43.2292 
-22.685 2.584 42.6058 
19.4166 1.4887 43.128 
19.5891 0.7969 42.8597 
-22.3009 3.1798 42.7739 
-21.6262 2.6108 43.3607 
-22.0092 3.8339 42.85 
19.8036 3.6406 41.4635 
19.838 2.6741 41.6212 
-23.4173 4.8483 41.3853 
-22.9049 3.7498 42.1582 
-21.6525 4.424 42.9477 
-22.6398 4.7439 42.1062 
18.788 5.8697 43.2941 
19.151 4.7338 42.8476 
19.2725 6.0538 41.8348 
-22.6488 4.0868 42.2846 
-22.6809 7.135 41.2252 
-21.9657 7.1356 41.9331 
18.5171 7.5669 42.7299 
19.0839 7.3844 41.3837 
-21.4737 8.4371 41.7157 
-21.3396 8.3196 41.9861 
18.2339 8.882 42.1901 
18.7596 8.3729 41.3354 
19.731 7.0847 40.0413 
19.4328 6.8671 40.9342 
-20.4958 8.8069 42.2521 
-20.3374 10.5787 41.5504 
-20.1983 10.2319 41.8098 
-19.5404 11.2758 41.7446 
17.9578 9.9457 41.7633 
17.7669 11.0466 40.9373 
17.3892 10.4864 42.6376 
17.6043 9.462 43.3371 
-18.661 11.8991 42.0109 
-19.1065 12.4386 41.4376 
-18.1641 13.2377 41.6116 
16.2652 12.6596 42.3003 
17.3056 11.5692 41.3596 
-20.5659 11.3228 40.9617 
-19.8348 11.7379 41.2875 
-20.1703 12.6214 40.5272 
-16.4941 14.462 41.7651 
-17.6098 13.978 41.4759 
-17.1731 13.2975 42.0989 
-17.7948 13.038 41.9354 
15.8139 12.6972 43.3583 
16.0421 13.3817 41.6704 
15.0631 13.9695 42.8193 
-18.1985 14.4073 40.8314 
-18.3961 13.6988 41.1555 
-14.9265 15.6878 41.6832 
-15.9921 14.7167 41.8536 
-14.7648 14.4173 42.5445 
-15.8666 15.2872 41.5441 
14.716 14.5838 42.4192 
14.5969 14.2284 43.4252 
15.2711 14.4628 41.4851 
-17.5157 15.6674 40.4047 
-16.885 16.0124 40.5056 
-16.231 16.4553 40.5307 
-16.4351 15.2553 41.3034 
-15.535 16.7618 40.6911 
-13.8818 16.5352 41.5903 
-13.1942 16.095 42.1811 
-13.1021 15.3987 42.6514 
-12.0849 16.5181 42.2769 
-13.234 16.8327 41.6318 
-12.4127 17.2302 41.6231 
13.3572 16.1852 41.9806 
12.8567 16.4594 42.2952 
13.7986 15.6919 42.1831 
14.6986 15.1103 41.4908 
-15.6074 17.9606 39.6631 
-11.9439 18.4638 40.733 
-12.6303 19.3606 39.6804 
-11.0065 17.4939 41.9188 
-10.2546 17.8692 41.86 
-9.5734 17.5763 42.334 
-9.3696 18.3033 41.7526 
-8.3282 18.1632 42.2244 
11.5902 17.3596 42.4904 
12.1821 16.7626 42.8264 
12.005 17.6046 41.3543 
-7.5033 19.3228 41.3246 
-5.9204 19.0597 42.1475 
-6.9603 18.946 41.9062 
-4.2236 18.8646 43.0887 
-4.5108 19.3961 42.2733 
-5.3259 18.5067 43.0492 
-3.1938 20.1023 41.7568 
-3.638 19.3506 42.6636 
7.0823 18.7286 43.933 
7.0029 19.0399 43.2798 
6.0854 18.7932 44.5101 
8.9378 18.484 42.7908 
9.0917 17.7815 44.292 
9.5551 18.1626 42.8878 
10.254 18.4585 41.7145 
-8.1418 19.9614 40.4824 
-1.1669 20.0946 42.3275 
0.8585 20.4747 41.9772 
1.7335 20.2362 42.4695 
1.7113 20.7767 41.4487 
4.3583 20.1808 42.1795 
4.1051 19.7905 43.0948 
5.1842 20.2413 41.7474 
7.2586 19.6525 41.7326 
6.4262 19.6344 42.3696 
-7.5912 -21.0125 43.0001 
-6.5035 -21.1466 43.1829 
-2.7866 -21.8366 42.8331 
0.227 -21.0335 43.8304 
1.4605 -21.2744 43.2783 
-11.0562 -19.9488 42.8007 
-10.0411 -19.8995 43.3856 
-10.8063 -19.6489 43.2824 
-10.6959 -20.5128 42.2781 
-7.0291 -20.6755 43.6708 
-6.4635 -20.4344 44.1527 
-7.3485 -20.3755 43.9416 
-5.2038 -20.8626 43.8749 
-4.123 -20.9303 43.9769 
-4.2925 -20.3657 44.7449 
-2.9028 -20.2189 45.1294 
-1.4822 -20.2708 45.1144 
-0.3055 -19.9683 45.5393 
1.7895 -19.9492 45.2102 
0.2014 -20.3994 44.7948 
1.802 -20.4698 44.3916 
2.6201 -20.8506 43.6464 
4.055 -20.4773 43.7707 
6.3575 -19.9917 43.5887 
4.9997 -19.897 44.2827 
5.2352 -20.4259 43.4414 
7.8665 -19.9522 42.8749 
-13.4486 -18.6227 43.0884 
-10.4362 -19.3064 43.9044 
-12.1984 -18.6345 43.7411 
-10.0294 -19.4138 43.9676 
5.8745 -19.3752 44.6726 
7.6286 -19.2893 43.8857 
9.5641 -19.5803 42.3105 
8.8611 -19.2289 43.2349 
9.687 -18.6287 43.3179 
9.2471 -18.7039 43.6234 
9.4526 -19.0383 43.0547 
10.5709 -19.2568 41.7854 
-15.7708 -16.769 43.4964 
-16.1761 -17.1444 42.8166 
-14.8929 -17.3196 43.6068 
-13.9056 -17.5203 44.0634 
-13.4764 -18.0413 43.8464 
-13.0722 -17.6195 44.457 
10.7268 -18.5486 42.4791 
10.928 -18.2408 42.6843 
10.7217 -17.6473 43.5612 
10.2555 -17.4493 44.2912 
9.9875 -18.1894 43.5963 
11.7279 -16.8139 43.6864 
-16.9073 -15.3959 43.7755 
-18.2867 -14.6926 43.1992 
-16.875 -15.8647 43.4198 
-16.5846 -16.3662 43.2156 
-15.8331 -16.5587 43.6256 
-15.9981 -15.7687 44.1749 
12.57 -16.3083 43.4631 
13.4231 -16.0654 42.8167 
13.2808 -15.5309 43.6087 
13.7016 -14.848 43.8795 
-19.4468 -14.5795 42.2348 
-18.6487 -13.98 43.4481 
14.2356 -14.1143 43.9975 
14.9223 -13.7056 43.4156 
-20.5624 -13.4294 42.0198 
-21.407 -11.8118 42.2472 
-18.4988 -13.5313 43.8727 
-17.5941 -14.6428 43.8414 
14.1773 -13.5913 44.8081 
15.6029 -12.514 43.6675 
14.8311 -12.3201 45.3944 
16.2763 -12.3846 42.5789 
15.6137 -11.8102 44.545 
-21.0869 -11.472 42.7742 
-19.4873 -11.6659 44.1185 
-19.3094 -12.5813 43.7663 
-18.8198 -12.1588 44.4306 
16.21 -11.2103 44.069 
-22.0685 -9.8539 42.5656 
-21.4925 -9.4906 43.2769 
-22.4027 -8.5177 42.7207 
-20.389 -10.8962 43.6981 
-20.0599 -11.6693 43.6146 
17.2543 -9.4659 43.8277 
16.6521 -10.4503 44.0577 
18.0416 -8.5498 42.8945 
-22.6384 -10.2769 41.7621 
-20.5867 -9.55 44.0584 
-21.0457 -8.9976 43.828 
17.5076 -7.9741 44.7999 
16.9334 -8.8882 45.2788 
-21.5303 -7.7759 43.7432 
-21.106 -7.2853 44.1599 
-21.9977 -7.2461 43.4418 
-21.1037 -8.3663 43.934 
-20.2675 -8.0098 44.691 
18.3793 -5.3697 44.8211 
18.0818 -7.1025 44.0943 
-23.0061 -5.5481 42.792 
-22.1219 -3.4081 43.6919 
-22.3384 -4.0231 43.4964 
-21.701 -3.911 44.0027 
-22.2426 -5.7924 43.4442 
-21.2733 -6.1022 44.1728 
-21.8654 -5.2755 43.8076 
18.4986 -4.3668 45.325 
18.7498 -4.9615 44.0367 
19.3959 -4.3492 42.5671 
-23.2264 -5.9729 42.54 
-23.2793 -2.5589 42.7521 
18.9135 -3.7153 44.3484 
18.5113 -3.1787 46.1868 
19.3022 -2.8574 43.5183 
-23.3052 -4.2369 42.6337 
-22.253 -1.5284 43.53 
-21.7763 -2.35 43.9172 
-20.9246 -1.5705 44.3891 
18.8227 -1.8195 45.6458 
18.7471 -2.7581 45.4319 
-22.57 -0.361 43.1525 
19.1887 -0.8351 44.5487 
19.5069 0.0348 43.3712 
18.9634 0.0537 45.3914 
19.5326 -1.5083 43.1958 
-20.6956 0.6458 44.2257 
-21.1705 1.799 43.7921 
-21.8907 0.5576 43.5132 
18.8521 1.4213 45.1366 
18.6815 1.0828 45.9972 
19.1927 0.6787 44.1648 
-22.5503 0.4349 43.0695 
-20.7729 3.4861 43.7189 
18.9696 1.9935 44.4749 
18.5936 3.1506 45.6076 
19.4507 3.1692 42.5954 
-20.3329 4.4292 43.7883 
-21.3241 4.9882 43.0183 
18.9038 3.8615 44.0423 
18.2137 4.7598 46.3365 
-21.2156 6.2119 42.7803 
-20.2559 6.7177 43.4369 
-20.5777 7.2104 43.1051 
18.5119 5.4815 44.5969 
-21.1595 7.0264 42.6884 
-19.6189 6.3733 43.9395 
-18.9831 6.9295 44.1636 
-19.6528 6.8439 43.7158 
18.4028 6.7538 43.83 
18.165 6.8175 44.617 
-20.5236 7.7043 42.818 
-18.9204 10.3294 42.5731 
-19.5643 8.6291 42.8779 
-18.1802 9.3306 43.3461 
-17.706 8.2858 43.8839 
18.0375 7.5639 44.228 
18.1251 7.8262 43.6402 
17.5382 8.7154 44.4803 
18.4131 9.5836 41.0089 
-17.7108 10.511 43.1288 
-16.6542 10.5507 43.5725 
-17.6203 11.2166 42.881 
-16.4206 11.6758 43.225 
17.9904 8.5771 43.236 
-18.5721 11.1531 42.4172 
-17.9924 12.15 42.2823 
-15.6534 12.2548 43.2716 
-16.9465 12.3869 42.6747 
-14.7902 13.1858 43.1623 
-16.2687 12.6773 42.8421 
16.0752 11.9489 43.9938 
16.4786 10.934 44.5566 
16.5191 11.5433 43.3827 
-13.7561 13.5178 43.3727 
-12.9214 14.5164 43.1794 
-13.9151 14.4386 42.8648 
15.527 12.0715 45.3962 
-15.9629 13.9145 42.3385 
-16.4784 13.7687 42.1782 
-13.9258 15.8544 42.0472 
-12.3557 14.8198 43.2437 
-11.6571 15.2695 43.2488 
-12.3659 15.3112 42.9956 
14.1241 15.01 42.8756 
14.117 14.2002 44.6497 
15.132 13.0072 44.5727 
-15.0231 16.8875 40.8192 
-11.1133 16.2498 42.837 
-9.0373 16.4994 43.3631 
-10.0526 16.4325 43.0544 
-9.8342 16.0463 43.3732 
-10.4282 17.0706 42.4567 
11.6576 16.7787 43.6347 
12.6534 16.0557 43.5011 
-8.9101 16.8349 43.1835 
-8.4645 17.351 42.9361 
-6.5663 17.413 43.6988 
-6.1471 16.9888 44.3809 
-5.8683 17.8727 43.5541 
-5.4918 17.43 44.316 
10.2932 17.4802 43.9649 
10.0095 17.9451 43.0971 
9.5855 17.6024 44.2252 
10.9277 17.3905 43.3639 
10.7289 17.0241 44.573 
11.735 16.1091 45.1757 
-6.4795 18.0686 43.0312 
-2.806 18.7924 43.8454 
-3.5289 17.9316 44.7909 
-1.5143 19.3215 43.5104 
-0.308 18.9933 44.5644 
-1.3832 18.9273 44.2607 
-1.1966 18.4568 45.2567 
0.9641 19.5499 43.7794 
-0.3501 19.697 43.2056 
1.7941 18.6938 45.8006 
2.2044 19.2221 44.6194 
0.8473 18.8122 45.3451 
4.1111 19.1165 44.5945 
3.1767 19.6674 43.5458 
2.7178 18.8049 45.5665 
5.0914 18.8214 44.9465 
4.851 19.833 42.7351 
5.5097 18.4191 45.7824 
6.6447 18.4683 44.9413 
7.7789 18.8111 43.1658 
7.8629 18.3296 44.205 
-2.2458 19.7765 42.5278 
2.3714 20.6743 41.6066 
7.2416 19.3197 42.5039 
5.9407 19.3265 43.3355 
-8.9525 -19.2659 44.6537 
-6.7816 -19.9041 44.7609 
-6.1648 -19.911 44.9293 
-5.6825 -20.2634 44.5827 
-4.0904 -19.5134 46.001 
-2.9869 -19.5527 46.1296 
-1.4103 -19.6282 46.1309 
2.839 -20.0995 44.7243 
-11.6013 -17.9627 44.7669 
-10.3579 -18.3892 44.9539 
-6.9785 -19.2891 45.4611 
-8.9114 -19.8242 44.0063 
-5.8642 -19.115 46.0798 
-4.3312 -18.9157 46.8183 
-5.1628 -19.5448 45.6925 
-3.1312 -19.1237 46.7813 
-2.0584 -19.2646 46.6953 
-0.1429 -18.6615 47.8501 
1.3079 -19.3974 46.2782 
0.3649 -19.1547 46.8735 
1.0232 -19.7161 45.779 
2.08 -19.5465 45.8406 
4.0913 -19.4665 45.3038 
5.5951 -18.8531 45.6716 
7.8351 -18.351 45.1403 
6.9181 -18.3041 45.8415 
7.0536 -18.8756 44.8048 
8.7459 -18.5022 44.2563 
8.1889 -18.9506 44.0111 
-14.7573 -16.56 44.3974 
-15.0926 -16.9317 43.8317 
-11.8718 -17.1151 45.6149 
-11.4814 -17.3845 45.4936 
-11.6055 -17.0391 45.8372 
-9.033 -18.1947 45.8684 
-10.4037 -17.396 46.0694 
7.6428 -17.7196 46.3564 
8.5818 -17.6584 45.6775 
8.9753 -17.2521 46.0682 
8.2027 -17.2179 46.8588 
9.7623 -17.4814 44.8555 
10.3404 -16.8025 45.1577 
-13.6202 -15.987 45.6098 
-15.6204 -15.5972 44.5688 
-13.3328 -17.034 44.9015 
-12.258 -16.8958 45.6495 
11.2635 -16.4861 44.5883 
12.5027 -15.6897 44.315 
12.9265 -15.0728 44.6183 
11.9712 -15.5722 45.1077 
-17.3329 -13.5493 44.7916 
-18.0864 -13.5449 44.2139 
-16.9378 -14.2468 44.6311 
-16.3901 -14.9434 44.5454 
12.5852 -14.7811 45.4974 
13.4837 -14.557 44.5371 
-18.6892 -12.5736 44.3002 
-18.038 -12.7191 44.7521 
13.3001 -13.8734 45.8309 
14.1602 -12.7999 45.9938 
14.5018 -12.1401 46.368 
-19.6554 -12.9087 43.2792 
-18.5707 -9.0081 45.7123 
-18.8653 -10.1898 45.1849 
-17.946 -9.7571 45.9584 
15.1724 -11.5901 45.7695 
15.7201 -10.8526 45.6462 
15.3005 -10.6195 47.0295 
16.1953 -10.5539 44.9387 
16.0182 -10.092 46.0508 
-21.1364 -10.6428 43.1317 
-18.1246 -10.8921 45.471 
-19.1363 -10.8546 44.7454 
-18.3361 -11.5615 45.0729 
-18.3731 -12.0603 44.8309 
16.6429 -9.7982 44.8713 
-19.7499 -8.2564 45.0156 
-19.7038 -7.4448 45.1745 
16.5413 -8.7371 46.6297 
17.1932 -7.6855 46.0734 
16.7184 -7.7984 47.5504 
17.8243 -6.5964 45.3566 
-19.9184 -6.4694 45.1282 
-19.4533 -7.3099 45.3553 
-19.2345 -5.9941 45.6076 
17.3151 -6.6244 47.1293 
17.5748 -6.4421 46.3595 
-21.2385 -3.7965 44.352 
-20.6598 -5.319 44.6792 
-20.6037 -4.2856 44.7858 
-20.7688 -6.2589 44.5504 
-19.1328 -3.0055 45.5524 
-19.971 -3.6191 45.1306 
-18.6677 -4.0695 45.9118 
18.2631 -3.5006 47.0361 
18.1903 -4.9492 45.8796 
-19.4171 -4.7748 45.5297 
-20.9162 -2.8939 44.5138 
18.4971 -1.7893 47.0694 
-20.3309 -2.5922 44.8388 
-19.24 -1.749 45.3564 
18.5996 -0.5548 46.9476 
-21.3947 -0.7553 44.0125 
-20.1111 -0.9569 44.7912 
18.3504 0.2436 48.1511 
18.5221 0.4086 47.0672 
-18.9811 -0.9002 45.3782 
-18.0207 -1.0786 45.9052 
-18.4822 0.0738 45.4861 
-17.8004 1.128 45.6437 
-19.3457 0.8423 44.9172 
18.359 1.1182 47.3907 
-19.97 2.9611 44.2403 
-18.8696 2.769 44.8152 
-17.4579 2.8497 45.4742 
18.1791 3.2415 47.4676 
18.5334 2.4589 46.1341 
-19.4825 4.2263 44.2746 
-18.5758 4.3309 44.645 
-16.268 4.3226 45.6884 
-17.6028 4.6666 44.9783 
17.9651 4.2968 47.7938 
-18.8313 5.9486 44.4726 
-18.3808 6.6484 44.4532 
-18.2432 6.1361 44.6619 
-17.47 5.4029 44.9242 
19.1076 2.6871 43.8457 
-19.9909 8.0175 42.8263 
-16.798 7.0505 44.7341 
-16.1817 7.4513 44.8102 
-17.6802 7.3507 44.228 
-16.6203 8.2367 44.3719 
-14.4674 9.4441 44.8108 
18.1368 5.6612 45.8916 
-19.5208 7.1167 43.5884 
-19.097 7.7126 43.3849 
-14.4131 8.1922 45.3157 
16.9508 9.2055 45.864 
17.0152 9.8471 44.6314 
17.9475 6.5904 45.69 
17.8399 7.2618 45.3195 
17.5113 6.9278 47.0166 
-17.3145 9.6747 43.6146 
-16.1202 9.3562 44.1933 
-14.3588 10.6804 44.3947 
-13.8694 10.3085 44.7378 
-13.085 9.957 45.2911 
-13.274 11.5685 44.4778 
-15.2478 11.616 43.6958 
-14.2162 12.1621 43.8395 
-11.5678 13.614 44.1982 
-12.5287 12.3588 44.4395 
-11.2315 12.6111 44.959 
-12.1651 11.3099 45.1476 
15.9707 11.2893 45.6243 
16.4243 10.1119 46.2615 
-10.5551 14.2781 44.2082 
-10.0327 13.3068 45.1918 
-8.918 14.2805 45.1431 
-9.4123 13.1452 45.7361 
14.5711 12.9538 46.3642 
14.682 13.4335 44.8774 
13.9337 13.8002 46.1173 
-12.4694 14.1965 43.512 
-11.9736 14.4571 43.5549 
-7.9823 15.1143 44.9804 
-8.6205 15.2907 44.4489 
-8.0041 14.4594 45.657 
13.1555 14.3554 46.7452 
13.2558 14.917 45.0092 
13.3749 15.6046 43.1608 
-10.5624 15.1233 43.6954 
-10.5927 15.8687 43.2601 
-11.1993 14.6336 43.7562 
-8.12 15.7736 44.2958 
-6.0832 16.2152 45.1913 
-5.5637 15.8853 45.9691 
-5.5434 16.5097 45.2812 
-5.6093 16.847 44.9152 
11.6214 15.9101 45.944 
11.2675 15.7755 47.0861 
12.1075 15.4649 46.1381 
-8.1565 16.2623 43.8614 
-7.8897 16.7687 43.6459 
-7.5833 17.6028 43.053 
-7.2895 16.6993 43.9879 
-4.7186 17.3171 44.954 
-3.058 17.7879 45.4054 
-2.3376 18.1194 45.2327 
-2.831 17.3157 46.516 
-2.5273 17.7141 45.8996 
-3.3307 17.1278 46.3702 
8.4478 17.8785 44.7615 
7.5564 17.9666 45.462 
8.5532 17.3426 46.1729 
9.6072 16.8985 46.1302 
9.1529 17.422 45.1558 
8.5578 16.9854 47.1981 
9.6402 17.2812 44.9764 
10.1046 17.1563 44.9426 
-4.8166 17.9938 43.9791 
-3.717 17.4618 45.4971 
-0.0875 18.3548 46.0257 
1.7621 18.3472 46.6432 
1.0735 18.2366 46.7838 
4.22 18.6917 45.5845 
2.9372 18.3328 46.7662 
5.8315 17.9474 46.9417 
4.912 18.4313 46.0073 
7.5504 18.2356 44.7752 
-7.5446 -18.4122 46.3252 
-5.7928 -18.4426 47.0571 
-4.9135 -18.3305 47.5236 
-3.4868 -18.3587 47.9277 
-2.2245 -18.6199 47.7798 
-0.9257 -18.3977 48.3491 
1.1841 -18.1753 48.7259 
2.6296 -18.8292 47.0326 
2.1087 -18.5484 47.7147 
3.0468 -18.3058 47.9544 
3.884 -18.4437 47.3273 
4.6091 -17.8269 48.3444 
-9.7221 -17.1743 46.7316 
-11.0705 -16.9365 46.2922 
-8.8013 -17.4381 46.8844 
-7.7508 -17.7313 47.0756 
-6.5923 -18.1743 47.0655 
-6.7264 -17.3106 48.1804 
-5.432 -17.8701 48.0054 
5.7348 -17.8512 47.5603 
6.0729 -18.2374 46.5132 
4.5903 -18.7214 46.4445 
7.3781 -17.5125 47.0069 
7.0751 -17.3019 47.7013 
8.1218 -16.893 47.6023 
-15.2589 -15.1926 45.1496 
-14.4244 -15.1297 45.7825 
-12.5604 -15.6776 46.5845 
-11.5496 -16.3734 46.6358 
-10.8656 -16.1936 47.2614 
9.2874 -16.6732 46.7559 
11.632 -15.4383 45.7208 
10.6223 -15.761 46.4812 
10.6647 -16.4294 45.3472 
12.3235 -14.2956 46.6909 
11.4612 -14.5475 47.5567 
-15.7648 -14.2383 45.4735 
-14.4568 -14.3835 46.3063 
-13.3586 -14.6161 46.8914 
-13.7633 -13.5119 47.3546 
-12.072 -15.0569 47.4506 
13.2711 -13.0769 47.3026 
-17.888 -11.8481 45.2915 
-17.0248 -12.9018 45.3844 
-15.8897 -12.7025 46.2881 
-15.771 -13.4149 45.9923 
-15.14 -12.5734 46.8966 
-14.6626 -13.4644 46.7521 
13.5311 -12.625 47.6204 
13.946 -11.7751 48.3117 
-16.1177 -10.8024 46.9407 
-17.2366 -11.0214 46.0905 
-16.1049 -11.7651 46.5701 
-19.1328 -9.3196 45.2424 
-17.3923 -10.5913 46.1024 
15.7167 -9.7072 47.4927 
14.8877 -10.6207 48.1235 
-19.3336 -8.5878 45.2619 
-17.663 -8.5225 46.4162 
-16.9976 -9.1386 46.7516 
-16.2371 -8.4774 47.395 
16.082 -8.6107 48.3457 
15.4805 -9.4693 48.6446 
-16.7886 -7.3811 47.0911 
-17.6964 -6.918 46.536 
-15.541 -8.0602 47.9613 
-15.7555 -6.652 47.9051 
17.199 -5.9808 48.6312 
16.7111 -7.0387 48.8951 
-18.7884 -7.5222 45.781 
-16.8995 -6.4862 47.1024 
-17.5668 -6.2292 46.6503 
-14.7972 -5.2959 48.8169 
-16.1511 -5.2502 47.616 
17.5258 -5.8772 47.3173 
17.8748 -4.7127 47.4618 
-18.3569 -5.1179 46.1751 
-17.5656 -5.5834 46.6709 
-17.3507 -3.407 46.6215 
-16.7099 -4.1022 47.1328 
18.1111 -2.163 48.9653 
17.851 -3.7196 48.9291 
-18.4027 -2.1106 45.8455 
-16.7881 -3.0241 46.9171 
-16.4647 -1.981 46.9758 
-17.4065 -2.2984 46.414 
-15.8011 -2.7467 47.6206 
-15.8092 -3.7738 47.7659 
18.1849 -1.0881 49.0953 
18.2784 -1.9928 48.1194 
18.3598 -0.5851 48.2438 
-17.2564 -0.9332 46.2997 
-16.5251 -0.8744 46.7327 
-17.297 -0.3317 46.1758 
18.2296 0.186 49.0341 
-16.8596 0.6738 46.2411 
-15.9584 -0.6348 47.0853 
-16.2577 1.0926 46.5137 
18.1008 1.415 48.6006 
18.15 0.6961 48.7396 
18.2596 0.7073 48.019 
-15.5955 1.5471 46.8238 
-15.3023 2.8983 46.6775 
18.1767 1.8674 48.0233 
18.2516 2.4569 47.4663 
-14.6085 3.7966 46.8933 
-15.2451 4.811 46.0799 
-14.6422 2.517 47.3076 
18.0848 2.7804 48.1873 
-16.1286 5.2635 45.4648 
-14.216 5.5813 46.4447 
-13.5043 5.4399 47.1043 
-13.4803 6.5923 46.593 
17.7851 5.262 47.771 
-15.754 6.1638 45.38 
-15.5614 6.8859 45.2643 
-14.5435 6.1853 45.9924 
-15.4115 5.9095 45.5975 
-13.1365 5.725 47.3548 
-12.8546 5.3659 48.0748 
-12.2912 7.2317 47.3438 
17.1273 7.9833 47.106 
17.3955 8.0642 45.9075 
-14.0279 9.3624 45.036 
-12.8659 7.9171 46.4272 
-11.8877 8.7956 46.7894 
16.7372 9.046 46.9613 
-13.7319 8.0159 45.7887 
-11.0128 10.2749 46.6427 
-12.0855 9.8875 45.9916 
-11.0381 10.7617 46.2766 
16.3455 9.8358 47.1014 
-10.4472 10.6199 46.9307 
-10.1082 11.3154 46.7045 
15.4973 11.6915 46.3628 
-11.2246 11.6532 45.5123 
-9.972 10.5364 47.5459 
-10.2179 12.1349 45.9206 
13.7783 13.4617 47.5089 
13.8299 13.6109 46.9047 
13.1671 13.9395 47.8919 
15.1047 11.9957 46.96 
15.0069 12.5792 45.9027 
-8.5797 13.4573 46.1746 
-7.8715 13.3216 47.0085 
-6.2947 14.2263 47.6581 
-5.8025 15.1608 46.7634 
-7.031 13.8459 47.2851 
-4.944 15.546 47.1294 
12.3221 14.3948 48.7726 
-7.4216 15.9007 44.5887 
-6.7024 15.508 45.5002 
-4.8548 16.1165 46.3774 
-4.1665 16.3512 46.7244 
-3.5803 16.6117 46.9298 
-3.8265 16.9271 46.3275 
10.2667 16.0543 48.0091 
9.8476 15.9154 48.8819 
10.8772 15.5296 48.606 
10.1564 16.3949 46.9906 
10.6243 16.0447 47.5185 
10.8363 16.4609 45.9249 
-4.3668 16.8314 45.8409 
-4.1658 16.0154 47.2186 
-1.851 17.695 46.4682 
-0.9463 17.4472 47.704 
-0.8469 18.08 46.2805 
-0.3068 17.801 47.2701 
0.2854 17.9145 47.2607 
-0.125 17.3963 48.3842 
6.5871 17.6458 47.2852 
7.5532 17.4452 47.0169 
6.3751 17.9488 46.5757 
5.405 16.9866 50.101 
6.3212 17.0255 49.418 
5.2042 17.4563 48.7416 
8.0542 17.1091 47.517 
10.0934 16.2396 47.5764 
9.5916 16.4335 47.4403 
1.1404 17.9187 47.6189 
0.642 18.2625 46.5343 
2.3123 18.0215 47.5907 
3.4894 17.9841 47.6728 
-3.9885 -17.8423 48.6549 
-2.7243 -17.9155 48.9541 
-1.1071 -18.057 49.0193 
2.1977 -18.1014 48.6926 
-10.3133 -16.4498 47.3363 
-10.4732 -16.8078 46.8427 
-9.7751 -16.7155 47.3097 
-8.9036 -16.8066 47.6528 
-5.7622 -17.0204 49.113 
-3.4115 -17.2783 49.8734 
-4.4845 -17.0434 49.7479 
-1.8888 -17.3523 50.3201 
-1.1128 -17.566 50.0579 
-0.203 -17.7262 49.8175 
0.4756 -17.9482 49.3287 
0.9671 -17.3252 50.8233 
1.1764 -17.8156 49.5973 
2.4676 -17.4657 50.211 
3.1497 -18.0045 48.634 
5.3939 -17.5932 48.3878 
-10.9688 -15.4876 47.8362 
-8.8502 -16.0009 48.8088 
-9.6333 -15.7987 48.4381 
-7.8106 -17.1136 47.8557 
-7.9376 -16.2427 49.0264 
7.8845 -16.3766 49.0976 
6.6829 -16.7606 49.4469 
9.2144 -16.1331 47.9446 
9.166 -15.6631 48.9527 
8.5025 -15.9407 49.3579 
9.9281 -15.2343 48.5545 
10.0408 -15.6333 47.6263 
10.6778 -14.8651 48.1714 
-12.7419 -13.8456 47.8961 
-10.2616 -15.2851 48.5457 
-11.5835 -14.2638 48.4761 
-10.1313 -16.1849 47.7301 
10.8253 -14.8979 47.8325 
12.4205 -13.5605 47.9477 
-14.6189 -12.8048 47.1567 
-13.2062 -12.5938 48.3474 
13.194 -12.4873 48.5804 
13.6991 -11.4237 49.6318 
-15.3111 -11.8059 47.1504 
-14.5884 -11.7833 47.7048 
-13.6959 -11.1322 48.7198 
-14.3205 -10.583 48.3865 
14.4337 -10.8394 48.9417 
14.4963 -11.1343 48.1641 
-15.1975 -10.4267 47.7503 
-14.9053 -9.5316 48.2185 
-13.8638 -10.1044 48.9517 
14.8487 -10.09 49.3618 
15.255 -10.0451 48.2509 
-15.8882 -9.5032 47.4691 
-14.0393 -9.2503 49.0707 
-14.7091 -7.9057 48.6593 
16.1777 -7.7824 49.6209 
16.3341 -7.9607 48.6473 
15.7273 -8.7548 49.2805 
-14.2313 -7.983 49.0891 
-14.5329 -6.3639 49.0236 
16.3711 -6.35 51.6881 
16.2104 -7.3023 50.4577 
16.6452 -6.3157 50.5419 
-14.1702 -4.7477 49.463 
-14.95 -4.2441 48.6012 
17.0683 -5.6014 49.9058 
17.4623 -4.9224 49.125 
17.1502 -4.4118 51.5446 
-14.7975 -2.6231 48.5076 
-14.1917 -3.518 49.3422 
-13.5621 -4.5483 50.3007 
17.4696 -3.7068 51.0391 
-15.8789 -1.5627 47.3109 
-13.2587 -3.6924 50.7155 
-13.8265 -2.63 49.702 
-14.4512 -0.5045 48.4041 
-14.0374 -1.9101 49.2494 
-14.9753 1.6619 47.2795 
-15.1248 -0.7328 47.7762 
-13.9771 -0.5629 49.0233 
-14.0829 0.5098 48.517 
-13.4231 1.057 49.2643 
18.0379 0.07 50.0367 
17.9917 0.6242 49.8536 
-14.3347 1.8747 47.7975 
-13.1016 -0.3784 50.3888 
17.8897 3.296 48.8292 
17.9652 2.5527 48.8756 
-14.1475 2.9258 47.6361 
-13.9564 2.4137 48.0217 
-12.5065 2.1818 50.5472 
-12.5562 3.109 49.9526 
-13.0582 2.3579 49.3236 
-14.0864 3.6932 47.3871 
-12.7923 4.7851 48.6511 
-12.4186 5.212 49.0355 
17.3759 6.6956 47.8589 
17.5219 5.9069 48.2465 
17.8326 6.0769 46.731 
17.7429 4.2852 48.8261 
17.4914 4.41 49.9382 
-12.7054 3.7781 49.3019 
-13.0586 3.6833 48.6763 
-11.2506 6.8203 49.3216 
-11.4101 7.6118 48.2292 
-11.7579 6.1614 49.1541 
16.9338 7.2842 48.899 
17.0739 7.5093 47.9928 
-11.7949 7.6827 47.6232 
-12.0548 6.4693 48.3048 
-10.7259 9.7185 47.3952 
-11.1124 8.9175 47.582 
-10.8182 8.2119 48.6011 
16.5697 8.2393 48.9027 
16.0267 8.7371 50.1912 
-9.7993 9.912 48.5139 
-10.2181 9.5045 48.2697 
15.4317 10.6218 48.9033 
15.7048 10.6689 47.8459 
15.1143 11.2382 48.6557 
16.1681 9.8863 47.6758 
16.5208 9.1879 47.5991 
-8.5341 11.7678 48.1403 
-7.9499 12.7038 47.6857 
-8.8446 12.2613 47.124 
15.8881 10.7743 46.9328 
15.2929 11.2958 47.9278 
-7.9298 12.0923 48.5799 
-6.9041 12.9705 48.8368 
-7.0767 13.115 48.3446 
13.5545 13.3938 48.3373 
14.0195 12.922 48.2497 
14.5393 12.2641 48.1948 
-6.5918 13.2432 48.8684 
-5.8602 13.5427 49.5399 
-6.1331 13.7081 48.7771 
11.5428 14.8523 49.2537 
11.5862 15.3094 47.8433 
13.2416 13.4676 49.0034 
-3.8996 15.7185 48.086 
-4.7784 15.036 48.271 
-4.166 15.0316 49.1213 
-3.3707 15.4478 49.4476 
-2.7369 15.7778 49.87 
-3.4037 15.9097 48.3761 
-2.6776 16.4357 48.4772 
-2.3204 16.3569 49.0884 
-2.0213 16.7894 48.3832 
9.4616 15.7842 49.7452 
9.2433 16.0303 49.2031 
9.6523 16.1799 48.2495 
11.1254 15.5679 47.9998 
-3.7554 16.0853 47.5399 
-3.1738 16.2991 47.9594 
-2.7454 16.7442 47.6316 
-0.5738 17.0905 48.8795 
-1.2566 17.1099 48.3084 
2.2703 17.4814 49.1562 
2.78 17.6804 48.616 
1.7037 17.5025 48.9287 
2.562 17.3419 49.5481 
3.5331 17.3997 49.4095 
4.1185 17.6304 48.6354 
4.5278 17.0652 50.2097 
6.8801 16.5849 50.3338 
7.5737 16.6712 49.376 
9.6064 16.5584 47.0956 
8.3342 16.6004 48.7008 
7.5559 17.0217 48.2997 
10.3291 16.8604 45.4723 
-7.2065 -16.5394 48.9793 
-7.216 -15.8645 49.9488 
-4.4376 -16.6852 50.4417 
-1.2956 -17.1198 51.0163 
-0.3397 -17.0799 51.354 
0.1171 -17.2713 50.93 
2.3607 -16.9555 51.5492 
3.1945 -17.8256 49.0272 
3.314 -17.0013 51.1077 
4.1567 -16.7833 51.2683 
4.293 -17.3238 49.7607 
5.4608 -16.9581 49.9968 
-9.4522 -14.75 49.7266 
-8.7202 -15.1489 49.877 
-7.9435 -15.8093 49.6284 
-6.1489 -15.7774 50.8028 
-6.5464 -15.3466 51.337 
-6.541 -15.8033 50.5263 
-4.2423 -16.2676 51.3525 
-5.184 -16.09 50.9867 
-6.1169 -16.055 50.3723 
-5.2419 -16.6551 49.9907 
5.0053 -16.7111 50.9561 
6.2328 -16.0483 51.7526 
7.3988 -16.2536 50.0275 
7.8177 -15.9986 50.1911 
8.2487 -15.4223 50.8689 
9.0213 -15.3241 49.8294 
9.3401 -15.2672 49.4505 
10.2635 -14.6366 49.332 
-12.5918 -12.5238 48.9249 
-9.1256 -14.1871 50.6715 
-7.0783 -14.9032 51.6636 
-8.4455 -14.5031 50.9618 
-7.7157 -15.6461 49.9858 
-7.1904 -15.4865 50.6138 
10.0285 -14.9003 49.1022 
12.1277 -13.1713 49.2774 
10.8037 -13.7999 50.345 
11.6044 -13.9417 48.6073 
-12.8582 -11.7162 49.1372 
-10.871 -13.2824 49.886 
-9.8932 -13.7607 50.3578 
-10.6794 -13.0486 50.2815 
-10.513 -14.0931 49.4512 
11.6617 -13.1047 50.3368 
12.7675 -12.3185 49.8583 
12.5227 -12.1649 50.7287 
-13.9269 -12.3874 47.916 
-11.1983 -12.2535 50.3895 
-12.2109 -11.7903 49.7333 
13.1486 -11.496 50.7987 
-13.0353 -9.3581 50.025 
-11.2341 -10.9411 51.3159 
-12.221 -10.285 50.5342 
-12.1346 -11.1073 50.1929 
-12.9849 -10.6129 49.5889 
14.9885 -9.311 50.5908 
15.2157 -9.3104 49.8196 
15.6367 -8.2189 50.7557 
14.7332 -9.1307 51.8044 
15.4956 -7.8716 52.0335 
-13.0168 -8.468 50.3393 
-12.4157 -8.9893 50.9419 
-12.5656 -8.0394 51.0712 
15.8617 -8.2606 49.8815 
16.7461 -6.5213 49.7647 
-14.0623 -6.9896 49.4258 
-12.451 -7.3641 51.4399 
-13.2412 -6.6656 50.4367 
15.9245 -7.3352 51.5431 
-13.807 -6.3021 49.7987 
-13.2166 -5.7809 50.6019 
17.2822 -3.2222 52.6241 
16.9993 -4.1292 52.7132 
-13.8448 -5.6325 49.8318 
-13.31 -5.0889 50.4999 
-13.0455 -4.4792 51.0252 
-13.0045 -3.8608 51.1757 
16.8129 -3.7701 54.2197 
18.0065 -2.8417 49.0953 
17.7317 -3.3556 50.1156 
-12.6772 -3.7317 51.7601 
-12.5235 -4.375 51.9369 
-12.4677 -3.6333 52.1114 
17.6376 -2.7059 51.2691 
17.8262 -1.9877 50.7898 
-13.104 -1.5032 50.7376 
-12.8207 -1.2692 51.2636 
-12.4409 -2.2324 52.3404 
-12.1674 -1.095 53.099 
18.0014 -0.9272 50.2946 
17.9762 -1.7345 50.0475 
-12.7715 -0.3448 51.0721 
-12.408 -0.1575 52.0612 
-12.7247 0.8654 50.7532 
17.8988 -0.0204 50.8447 
17.862 0.7809 50.4003 
17.7577 0.5113 51.1756 
-12.0921 2.6395 51.4 
-12.1334 3.9652 50.5218 
17.8567 1.3285 49.9357 
17.693 1.7256 50.6917 
-11.9181 3.973 51.1204 
17.3549 4.1076 50.8628 
17.2172 3.3773 52.364 
17.6972 2.7358 50.1595 
17.8798 2.0172 49.6081 
-13.184 4.7401 47.9121 
-11.4807 3.6416 52.7291 
-11.6001 2.6944 53.1362 
-11.433 3.021 53.5571 
17.3056 5.2425 49.982 
17.1407 5.7806 50.0593 
17.2462 4.9525 50.5322 
-10.9331 6.699 50.2442 
-11.5998 5.8337 49.8774 
-10.6832 6.486 51.4633 
-10.2091 6.5685 52.9487 
-10.9508 5.779 52.4505 
-9.9996 8.3029 50.2668 
-10.1431 7.5851 51.0877 
-9.1206 8.9646 51.5081 
16.9635 6.3863 50.0636 
-10.5801 7.9908 49.3205 
-9.7341 9.2702 49.4467 
15.5982 9.7149 50.0102 
15.8614 8.4638 51.2678 
16.1374 7.8109 51.2985 
-8.6668 9.8198 50.9894 
-8.5378 9.7737 51.4755 
15.0847 10.938 49.4311 
14.9148 10.8895 50.0391 
16.1633 9.4791 48.4576 
16.4128 8.7865 48.6505 
-8.5826 10.4763 49.9591 
-8.4001 11.313 48.9868 
-7.4979 11.6947 50.1048 
-6.7523 12.0522 50.9723 
-7.1674 11.6021 51.0189 
14.6338 11.6977 49.2106 
14.5286 11.3417 50.329 
15.6545 10.0188 49.3107 
-6.7175 12.5176 50.0408 
-5.7504 12.7401 51.4983 
-5.0899 13.1149 51.8949 
-5.9625 12.9809 50.5302 
-4.3996 14.326 50.3161 
-5.0259 13.4786 51.1822 
13.6652 12.5485 50.1686 
13.146 12.8489 50.8695 
13.6875 12.8933 49.2793 
14.4883 12.8229 47.0439 
-5.1786 14.5996 48.5287 
-4.8821 14.2894 49.6265 
-4.0379 14.7717 49.8839 
11.1041 14.6763 50.7164 
11.6406 14.107 51.1898 
12.4439 14.0003 49.6131 
-2.3592 15.7517 50.4968 
-2.9444 15.3726 50.5417 
-2.0633 15.643 51.2313 
-1.5207 16.6595 49.159 
-0.4665 16.6221 50.1854 
7.5163 15.9081 51.8271 
6.5263 15.6873 53.3919 
7.6692 15.6305 52.5069 
9.395 15.4699 50.8606 
8.4164 15.6596 51.562 
9.5 15.1823 51.5688 
10.5225 15.3582 49.7578 
9.9621 15.1837 51.0076 
11.0258 15.1108 49.6203 
-2.2882 16.0287 49.9405 
0.3555 16.8782 50.0755 
1.5643 17.1573 49.8535 
0.4654 17.1563 49.3789 
3.1598 17.0266 50.5491 
1.9028 16.7713 51.1019 
3.8237 16.8901 50.9021 
5.8663 16.6651 50.8359 
6.4855 17.322 48.3395 
9.1716 15.7299 50.2286 
-3.5315 -16.634 51.0767 
-2.6936 -17.0651 50.6198 
-1.4517 -16.4347 52.5728 
-0.5144 -16.6059 52.4863 
0.2341 -16.7503 52.2805 
1.1581 -16.9114 51.8763 
3.0209 -16.7718 51.8428 
-6.0405 -15.439 51.4969 
-6.1067 -15.0185 52.1587 
-4.8761 -15.74 51.8748 
-3.7449 -15.6706 52.9143 
-3.3772 -16.0575 52.377 
-2.1297 -15.9399 53.4369 
-1.9557 -15.5817 54.3553 
-2.791 -15.7248 53.5199 
-1.4599 -16.051 53.5148 
-0.7081 -16.1231 53.6356 
-1.3069 -15.646 54.5262 
2.1088 -15.9785 54.169 
1.4654 -15.9196 54.4116 
1.2465 -16.4158 53.1762 
1.9515 -16.5434 52.7428 
2.6039 -16.2346 53.3993 
4.1265 -16.4678 52.1303 
6.6209 -16.3352 50.6088 
6.9632 -15.6565 52.1067 
7.4023 -15.6763 51.5679 
-7.8948 -13.8097 52.4492 
-8.6988 -13.6413 51.773 
-7.5459 -14.4509 51.878 
-6.6262 -14.5087 52.6561 
-6.894 -13.7375 53.6749 
-4.8266 -15.2553 52.7787 
-5.9093 -14.8258 52.5914 
-5.5614 -15.4221 51.8368 
8.7547 -14.6784 51.8023 
8.9035 -14.9272 50.9014 
9.8738 -14.0307 51.5003 
9.47 -13.786 52.7914 
10.7996 -13.3346 51.5564 
-9.1281 -13.0075 52.0022 
-10.0861 -12.8917 51.0247 
11.5308 -12.5641 51.895 
12.7116 -11.8048 51.1855 
-10.8348 -12.0804 50.9132 
-9.8012 -12.3989 51.8764 
12.3715 -11.7811 52.033 
13.1307 -11.2794 51.4026 
12.8332 -11.2433 52.2249 
13.8684 -10.4454 51.2941 
14.6353 -9.8696 50.445 
-11.4431 -9.8723 51.7596 
-11.4542 -8.9115 52.3269 
-9.6493 -10.6571 53.7983 
-10.2631 -10.0205 53.4238 
-10.0061 -10.7597 53.1864 
14.2384 -9.5447 52.3604 
14.3904 -8.9307 53.3671 
15.1063 -7.8259 53.5316 
-11.3319 -8.3582 52.8485 
-12.1113 -8.1989 51.693 
15.3858 -7.5385 53.1412 
15.1284 -7.426 54.326 
-11.9583 -7.3383 52.2952 
-11.5261 -7.5832 52.9503 
15.6995 -7.3169 52.5117 
16.2166 -6.1782 52.7576 
16.365 -5.8126 52.6986 
-12.4887 -6.2119 51.6785 
-12.2395 -5.3196 52.3194 
-12.9187 -5.35 51.0601 
16.4915 -5.1697 53.2715 
16.2639 -4.8572 54.9148 
17.0308 -2.9162 54.3609 
16.5687 -3.9076 55.1618 
-12.1498 -3.7338 52.7831 
-11.8102 -3.7913 53.5472 
17.2805 -2.3042 53.7044 
17.3865 -1.3682 53.7769 
17.1917 -1.7352 54.6896 
17.5455 -1.7643 52.5815 
17.4778 -0.6569 53.5521 
17.3749 0.1719 54.1809 
17.3311 -0.244 54.4961 
17.8738 -0.8693 51.0393 
17.8636 -1.2841 50.9751 
-12.2462 0.602 52.2653 
17.2994 2.2386 52.7408 
17.3338 1.1848 53.1049 
-11.8314 1.3535 53.2274 
-11.7169 0.4717 54.2153 
-11.5129 0.6082 54.9635 
-11.637 1.5874 53.93 
18.0358 0.778 49.476 
-11.5654 5.1403 51.6274 
-11.6877 3.6215 51.9456 
17.1628 4.5483 51.3963 
17.0293 3.6667 53.1497 
-11.2826 4.1323 53.269 
-11.0564 4.36 53.9677 
16.6225 5.067 53.4932 
16.8732 4.7179 52.7281 
16.478 5.9322 52.8449 
-11.3368 5.2087 52.7917 
-10.7958 5.1688 54.0815 
-9.7754 7.6038 52.3093 
15.8724 8.2121 51.6899 
16.8842 5.8332 51.1878 
-9.5439 9.1463 50.0086 
-8.2663 9.5068 52.9575 
15.4348 9.4075 51.1565 
-8.9444 9.6546 50.5832 
-7.9362 10.2173 52.1886 
15.4427 9.0119 51.8944 
15.437 8.3679 53.0909 
-7.4996 10.557 52.6073 
-7.9291 9.6877 53.5545 
-7.5547 11.0172 51.3328 
-8.064 10.659 50.8304 
14.0151 11.7763 50.9648 
14.2219 10.7238 52.6299 
14.7213 10.3867 51.723 
-6.4716 11.9318 51.8898 
-5.6755 12.5499 52.1281 
13.1136 12.3946 52.0682 
13.5296 12.1976 51.4181 
13.52 11.7021 52.5581 
-4.6896 13.5317 51.6531 
-4.1176 13.6428 52.418 
-3.1436 14.6302 51.798 
-2.7846 14.6752 52.5116 
-2.5742 15.0858 51.8169 
-2.179 15.0628 52.5481 
10.9735 14.168 52.4365 
10.4553 14.6013 52.1204 
10.5121 14.1267 53.4103 
11.2284 13.7287 53.1665 
11.8824 13.4507 52.4226 
-3.0128 15.0104 51.1502 
-3.7282 14.5673 50.8559 
-1.3463 15.9002 51.312 
-0.4942 16.2384 51.2011 
-1.4021 16.2302 50.3697 
0.1862 16.0275 52.3379 
-0.396 15.9274 52.159 
0.5063 15.6557 53.5871 
-0.4586 15.5529 53.105 
5.0582 16.4797 51.7987 
6.2827 16.0916 52.3392 
5.0216 15.8906 53.6918 
5.6599 15.7228 53.8868 
5.3646 16.1451 52.756 
8.7602 15.3729 51.9289 
8.5374 15.19 52.8218 
6.6435 15.2785 54.4955 
7.9309 15.2254 53.4878 
9.4048 14.8254 52.7066 
9.7787 14.5133 53.1101 
9.9146 14.7455 52.3537 
0.3749 16.4618 51.2756 
1.1629 16.0879 52.7562 
1.4643 16.5981 51.4563 
4.1226 16.6146 51.6974 
4.5875 16.7606 51.1163 
8.5012 16.2032 49.7324 
-2.9243 -15.9757 52.8779 
-3.5868 -15.424 53.5303 
0.6871 -16.3758 53.2766 
0.139 -15.9497 54.2644 
2.2542 -15.6317 54.9985 
2.9197 -15.8849 54.1919 
3.4842 -15.9244 53.8657 
4.978 -15.8817 53.1907 
5.4529 -15.5401 53.7859 
4.3026 -15.7577 53.9121 
5.5075 -15.9714 52.5889 
5.6583 -15.7189 53.1345 
8.1492 -15.2587 51.4297 
7.5192 -15.9386 50.7057 
-8.5071 -13.4384 52.2369 
-6.4371 -13.8673 53.88 
-6.7327 -13.2091 54.5934 
-4.6226 -14.8407 53.7502 
7.8114 -14.8455 53.2049 
6.8992 -15.2378 53.2457 
7.9159 -15.0559 52.4343 
8.5808 -14.3335 52.959 
10.5806 -13.1881 52.3047 
9.9873 -13.2784 53.1644 
10.1149 -13.6425 52.0703 
-9.5067 -12.2293 52.4297 
-10.059 -11.4266 52.4772 
-7.972 -13.4988 52.8032 
-8.0689 -12.814 53.5513 
-8.9187 -12.7313 52.6176 
-7.683 -13.1977 53.5212 
10.0513 -12.7503 54.3924 
11.9741 -11.7811 52.9026 
11.6344 -11.7484 53.7839 
10.9975 -12.398 53.4531 
12.4777 -11.3108 52.937 
-9.6043 -11.4942 53.0679 
-8.8423 -12.3404 53.1681 
12.1547 -11.3453 53.6331 
13.1763 -10.405 53.361 
13.4803 -9.7659 54.1398 
12.5115 -10.8299 54.1079 
13.5325 -10.6437 51.8323 
13.5196 -10.297 52.6532 
-10.894 -9.4867 52.8299 
-9.0512 -11.2504 54.076 
13.8428 -9.5676 53.5035 
13.9469 -9.1635 54.254 
14.2307 -8.2559 55.5673 
13.8197 -8.9405 55.1692 
14.3008 -8.5286 54.6695 
-11.005 -8.6934 53.1678 
-11.0664 -7.5804 53.7444 
-10.3743 -9.1467 53.9091 
14.2259 -8.9113 53.9608 
14.6076 -8.2712 54.2142 
-12.0542 -5.8077 52.6101 
15.6468 -6.8993 53.5391 
16.8826 -4.7586 52.2712 
-11.5984 -5.2767 53.6709 
-11.7462 -4.5432 53.5574 
-11.9518 -4.9241 52.9747 
16.1204 -6.1625 53.0461 
-11.4271 -4.8334 54.2159 
-11.2587 -3.4951 55.1529 
-10.8955 -3.3502 56.2394 
-11.4829 -2.4759 54.9014 
16.987 -1.2917 55.9892 
16.9743 -2.4953 55.1414 
-11.7291 -2.0307 54.3633 
-12.029 -2.3827 53.4052 
-11.766 -2.5191 54.2071 
17.225 -1 54.9074 
17.2559 -0.332 54.9731 
16.9686 -0.6739 56.3779 
-11.9503 0.0737 53.4507 
-11.4037 -0.1873 55.6608 
-11.7992 -0.8789 54.2701 
-11.2002 -0.9174 56.27 
17.2063 1.0043 54.2124 
16.9719 1.1374 55.4391 
