ply
format ascii 1.0
element vertex 1905
property float x
property float y
property float z
end_header
-20.8575 -11.883 9.5161 
15.9103 -12.4445 10.7421 
16.6106 -11.622 11.2689 
16.2991 -12.6966 11.6355 
16.3345 -11.2377 10.4987 
-22.0681 -10.8808 10.4144 
-21.6043 -11.2466 9.9986 
-21.6793 -10.7162 9.5148 
-19.9745 -11.5244 7.8256 
-20.5536 -11.3598 8.4819 
16.5442 -10.2716 10.1886 
16.2079 -10.1779 9.5937 
-22.2499 -10.0409 9.7883 
15.8035 -11.1466 9.5464 
-24.1542 -7.1723 10.7428 
-23.6706 -7.3286 9.8997 
-23.9616 -8.3124 11.2532 
-23.9827 -6.7418 10.1262 
17.3777 -8.0838 10.6091 
17.6284 -8.0405 11.0464 
18.2995 -6.3662 11.7254 
18.1352 -7.6494 11.7725 
-24.7167 -7.1956 11.9196 
-24.5184 -7.9739 12.087 
17.5277 -6.2309 10.3665 
17.9121 -5.7542 10.9567 
-24.1882 -5.6957 10.1576 
-24.2269 -6.5872 10.5546 
17.8484 -4.6028 10.8598 
18.2739 -3.7873 11.7021 
18.3714 -5.0125 11.6406 
-23.8012 -2.6697 9.2108 
-24.3028 -3.3026 10.0216 
17.6663 -3.6194 10.8066 
17.3315 -4.5403 10.1694 
18.746 -2.7782 12.6316 
18.3577 -2.953 12.0068 
18.5751 -1.7198 12.4549 
-24.1301 -1.8554 10.0517 
-24.6448 -2.5973 10.8623 
17.6212 -1.4715 11.0086 
18.0598 -2.3653 11.5694 
17.3145 -2.595 10.4448 
18.3214 -0.9742 12.1339 
-24.9449 -1.966 11.685 
-24.4199 -1.123 10.8243 
17.1381 -0.7912 10.381 
17.86 -0.3243 11.4984 
17.3715 0.39 10.8362 
-23.9636 0.1579 10.283 
-23.8315 0.7282 10.3199 
16.9597 1.2527 10.3118 
17.5085 1.5916 11.1979 
18.0323 0.8714 11.9262 
-23.2054 0.4796 9.0083 
-23.2719 3.0459 8.8283 
-22.8507 2.0986 8.4772 
-23.5315 2.5682 9.6179 
17.4745 3.5139 11.4497 
17.7394 2.5909 11.7266 
-23.897 1.8552 10.6299 
-24.2935 3.3303 10.8852 
17.4013 4.6688 11.5958 
17.7585 4.0282 12.068 
-24.766 5.0676 10.7967 
17.1755 5.4262 11.4182 
17.4915 6.0882 12.2278 
-24.9991 6.5806 10.1227 
-24.7983 5.9683 10.0658 
-25.269 6.2956 11.1727 
-25.1568 7.3573 10.2466 
-24.7946 7.3 9.2177 
15.8046 7.3113 9.6635 
15.7662 8.1152 9.94 
16.1617 8.2543 10.7239 
-25.3391 8.0346 10.5378 
-25.6954 8.7005 11.3865 
15.494 7.4583 9.2274 
16.4486 9.0624 11.6752 
16.5387 8.486 11.5541 
15.8702 8.9932 10.601 
-25.7623 8.4509 11.5993 
-25.7618 8.927 11.4884 
-25.4548 9.4263 10.6767 
-24.8665 10.7676 9.8216 
15.5096 9.8992 10.4465 
-25.3645 11.4294 11.7054 
-25.398 10.6472 11.1497 
-25.5331 11.277 12.0145 
-24.5823 11.3324 9.6273 
-24.259 11.7409 9.2567 
14.9192 11.0712 10.2215 
14.4278 11.3091 9.576 
14.9048 11.4774 10.5066 
-23.3138 13.6364 9.4351 
-23.5084 14.17 10.5741 
-22.8864 14.2241 9.4862 
13.9341 13.6295 10.8438 
13.6144 13.573 10.2629 
13.3973 14.1788 10.6278 
15.5812 10.4407 10.9538 
-23.9536 13.6892 10.7997 
-24.3648 12.9019 10.7538 
-24.2143 13.5437 11.1548 
-22.4554 14.5555 9.2232 
-22.4793 15.0038 9.9236 
12.9905 14.0485 9.8517 
12.5359 13.9415 9.0605 
12.197 14.7441 9.593 
11.8099 14.6674 8.9663 
-21.6591 15.8418 10.0399 
-22.1697 15.6537 10.4646 
11.4813 15.2868 9.3893 
11.0932 15.9331 9.894 
11.7201 15.4681 9.9967 
12.4231 14.9989 10.2787 
-20.1448 17.0171 9.7672 
-20.6924 16.2906 9.2572 
-20.7668 16.5645 9.9249 
-19.8299 17.0454 9.4711 
-19.8102 16.5837 8.6628 
-19.8746 17.4544 10.2486 
9.1832 17.0944 9.6624 
8.5463 17.6319 9.9486 
12.1137 15.5285 10.6163 
-19.5003 18.4436 11.9193 
-19.8812 17.8282 11.0209 
-20.3512 17.8912 11.708 
-20.1464 17.4005 10.5183 
-19.4912 17.7534 10.5114 
-15.5017 18.7204 10.6645 
-17.1512 18.5898 10.8998 
-16.2594 19.1345 11.6058 
-14.5413 18.9378 10.7898 
-13.4567 18.8956 10.3305 
-13.6737 19.2041 10.8873 
-12.5617 19.4493 10.746 
-11.1706 19.8041 10.4557 
6.9263 18.5023 9.7129 
10.0299 17.0095 10.527 
-14.4205 19.4393 11.5498 
-10.1518 20.243 10.3951 
5.2772 19.3956 9.4987 
4.8523 20.3726 10.5942 
5.146 20.0168 10.2968 
4.7212 20.1256 10.093 
6.9338 19.0696 10.6464 
7.9713 18.4154 10.6692 
-9.9955 20.6664 10.951 
-8.2329 21.1424 10.3889 
-8.8135 21.483 11.3599 
-7.2073 21.6109 10.4532 
-3.2028 22.9638 11.2248 
-2.3297 22.8634 11.0622 
-1.3567 22.4238 10.5064 
-1.7391 22.5361 10.5907 
-1.5093 23.0664 11.573 
-0.5328 22.9473 11.657 
-0.3465 22.235 10.4966 
2.5588 21.4183 10.7305 
1.9376 21.8725 11.0403 
5.9212 20.2496 11.5247 
-5.6463 22.5884 11.2875 
-6.3498 22.4108 11.3235 
-6.0662 23.0528 12.3666 
-1.9478 23.1987 11.7423 
-0.951 22.0635 9.99 
-0.0133 22.8312 11.6477 
1.0064 22.2461 11.1307 
-10.7727 -21.4369 14.4199 
-11.3723 -21.0233 13.5375 
-10.1631 -21.4659 14.1487 
-8.167 -20.746 11.51 
-7.8135 -21.1701 12.5816 
-6.6207 -21.419 13.1471 
-6.9258 -20.8772 11.7497 
-5.5296 -21.516 13.3981 
-4.7682 -20.7289 11.5196 
-5.4901 -20.9347 11.9552 
-3.1961 -20.6888 11.6914 
-2.5184 -20.4033 11.2723 
-1.6059 -20.9425 12.561 
-0.4349 -21.0688 13.0532 
-0.9315 -20.6703 12.114 
0.3933 -21.058 13.1527 
-14.2747 -18.8035 10.5258 
-14.1294 -19.0968 11.0786 
-14.8411 -18.8025 11.0802 
-11.3067 -20.2382 11.3269 
-11.8848 -20.2808 11.8112 
-11.329 -20.0163 10.8198 
-10.43 -20.2822 10.9901 
-10.1184 -20.1777 10.6144 
-9.8329 -20.8912 12.3224 
-9.7084 -21.3595 13.6532 
-7.6207 -20.7048 11.3284 
-8.0981 -20.2953 10.4373 
-6.2126 -20.1626 10.1741 
-4.2785 -21.0094 12.2305 
-3.9886 -20.3347 10.8467 
-2.9071 -19.8847 10.2178 
0.1698 -20.5193 11.9926 
1.5053 -20.6155 12.3572 
2.7746 -20.5294 12.3212 
4.5976 -20.2065 11.8093 
4.3173 -20.6384 12.7929 
6.2809 -20.4047 12.8194 
6.0418 -20.137 12.0599 
6.7925 -20.4166 13.0619 
7.4535 -19.6956 11.7192 
7.065 -20.1313 12.5509 
6.305 -19.8477 11.484 
8.4309 -19.3963 11.7058 
9.1456 -19.119 11.679 
9.5697 -19.2386 12.3802 
-16.8476 -17.4059 11.4207 
-16.5763 -17.9657 12.2421 
-17.5216 -16.8156 11.6248 
-16.2246 -17.3884 10.1503 
-16.2299 -16.8795 9.2853 
10.5182 -18.4318 11.5293 
9.9275 -18.6486 11.4028 
10.1471 -18.2524 10.7468 
11.5834 -17.8189 11.8529 
12.219 -17.1619 11.4747 
11.9612 -16.9469 10.77 
-18.0692 -16.3125 11.8144 
-18.3725 -16.3929 12.8119 
-19.0414 -15.6919 12.8158 
-17.509 -16.5293 10.9793 
-16.5146 -17.4977 10.9785 
-15.7195 -18.2509 11.1193 
13.6742 -16.2185 11.7245 
13.0971 -16.681 11.6858 
-18.5104 -15.6102 11.3083 
-19.5876 -14.8117 12.0169 
14.5592 -14.6703 10.8524 
13.9586 -15.4407 11.0144 
15.2705 -14.8753 12.2504 
14.7368 -15.147 11.7618 
15.4699 -14.2373 11.7684 
-20.4531 -13.468 11.1631 
-21.0434 -13.3576 12.1646 
-21.3171 -12.915 11.9027 
-20.7982 -12.9525 10.9278 
14.4661 -13.6406 9.5333 
14.9742 -13.2335 9.8853 
15.4385 -13.5025 10.9341 
15.9016 -13.6414 11.8427 
-22.2496 -12.2304 12.6803 
-22.0225 -11.9992 11.8326 
-21.8726 -11.6448 10.9884 
15.218 -14.0222 11.1129 
-22.599 -10.7422 11.2286 
17.4714 -10.5518 12.0376 
17.8309 -9.1801 11.9098 
18.0437 -9.5629 12.5121 
18.667 -10.5471 14.4093 
18.7353 -9.3124 13.7022 
19.3953 -9.3799 15.1168 
-23.8378 -9.3761 12.0654 
-24.1121 -9.624 12.9445 
-24.2718 -8.7498 12.2836 
-24.0093 -8.7847 11.7847 
-23.618 -9.1934 11.4055 
17.1514 -9.9064 11.0568 
17.0506 -10.7257 11.3771 
-24.5181 -6.8888 11.283 
-22.7251 -10.0117 10.6011 
-24.9857 -6.1149 11.9388 
-25.1235 -6.9743 12.7223 
-24.5842 -5.5248 10.9045 
18.7853 -5.4029 12.4126 
19.3723 -5.8091 13.5601 
-24.7522 -4.7925 11.168 
-24.8274 -5.3428 11.3701 
-25.1986 -5.0749 12.2577 
-24.4859 -4.1991 10.4471 
19.4365 -4.899 13.5162 
19.0608 -4.2682 12.8497 
-25.625 -5.3963 13.4179 
-25.5379 -4.0133 12.8494 
-24.9511 -4.0449 11.4472 
19.1702 -3.7382 13.2165 
18.9115 -3.4516 12.8094 
-25.2443 -3.1971 12.0339 
-25.6936 -3.0869 13.0709 
-24.6149 -0.8928 11.2831 
19.0963 -1.2497 13.3601 
-24.7106 0.0415 11.7641 
-24.4393 -0.4271 11.0527 
-24.8472 -0.4406 11.8922 
18.4718 0.1268 12.5287 
-24.7956 0.7416 12.2386 
-24.4513 0.6026 11.5278 
18.2297 1.7464 12.3811 
-24.1281 1.5677 11.1124 
-24.3895 2.2018 11.5354 
18.1423 3.3377 12.5617 
-24.965 3.2717 12.4885 
-24.5824 4.4535 10.8297 
-25.2295 4.59 12.4142 
18.4071 3.2935 13.0517 
18.2078 4.0822 12.8847 
17.6503 5.138 12.2217 
-25.1263 5.2232 11.6386 
18.0514 5.2023 12.9535 
-25.6102 6.1871 12.3643 
17.6128 6.7967 12.7481 
17.8792 6.6329 13.1979 
17.4941 8.2485 13.2532 
17.487 7.2834 12.7478 
16.9856 7.8676 12.0704 
-26.1662 7.4775 13.5218 
-25.8645 7.0236 12.7078 
-26.3023 6.4119 14.5245 
17.2808 6.6961 12.0719 
-25.8697 7.6854 12.3858 
-26.2425 8.3971 13.2332 
16.1939 9.675 11.5729 
16.1722 10.6445 12.2351 
16.8053 9.7469 12.8091 
-25.3287 11.6837 11.8094 
-24.0001 12.9117 9.9388 
-24.4999 12.0219 10.0695 
15.5484 10.9497 11.2746 
15.319 11.62 11.3732 
15.8241 11.4445 12.1905 
-24.794 12.8563 11.7013 
-25.3597 12.2339 12.4167 
-25.3061 12.9628 13.1457 
-23.9369 14.4372 11.8213 
-24.0052 14.765 12.4187 
-23.1052 15.4915 11.8264 
14.442 12.9319 10.9947 
14.5225 13.5455 11.7269 
14.803 12.9292 11.6063 
15.1399 12.2595 11.6091 
-23.2167 14.9267 11.0968 
-22.6747 15.1675 10.5112 
-22.4635 15.7463 11.0645 
15.2206 13.2441 12.6793 
-23.0229 16.2223 12.9294 
-23.5145 15.329 12.3282 
-24.1195 15.4557 13.7853 
-22.521 16.136 11.8268 
-22.1321 16.1248 11.2306 
-21.5592 16.4417 10.9246 
-20.8648 17.0236 10.9591 
13.0524 15.3674 11.7189 
12.5945 15.2565 10.885 
12.4258 15.8647 11.5823 
12.9913 14.7821 10.78 
-20.3838 17.6371 11.3463 
10.2016 17.2269 11.105 
10.892 16.6716 10.9161 
11.1364 16.9699 11.7617 
10.049 18.0149 12.3857 
11.7913 16.3093 11.4186 
11.2798 16.1825 10.5612 
-20.9827 17.1814 11.4279 
-21.0567 17.5413 12.2182 
-20.0848 18.602 12.9197 
-19.0628 18.1705 10.9985 
-17.386 19.1143 11.9936 
-18.0731 19.568 13.2565 
-16.7813 19.4573 12.3881 
-15.0632 19.1015 11.188 
-15.218 19.7861 12.4101 
8.6802 18.5499 11.7428 
9.0837 17.7536 10.7592 
11.5615 17.1331 12.6483 
-18.2833 19.1372 12.4799 
-18.6389 19.4993 13.4761 
-12.6728 19.7747 11.3203 
-11.8174 20.1055 11.336 
-10.7537 20.4535 11.1858 
-9.9483 21.1929 11.7656 
6.2136 19.5751 10.7199 
7.0265 19.4382 11.3963 
8.0376 19.0676 11.9303 
9.1646 18.7219 12.6694 
9.4012 18.0245 11.593 
-13.1498 20.4841 12.7162 
-12.4868 20.9426 13.1234 
-11.432 20.7543 12.1397 
-8.3251 21.8387 11.6045 
-9.1092 21.8632 12.2624 
-7.7217 21.7677 11.0652 
-7.5708 22.4365 12.1665 
-6.8274 22.5387 11.8253 
2.0576 22.2547 11.7478 
3.8243 21.5684 11.6749 
3.1722 21.4837 11.2625 
3.696 22.3687 13.0372 
5.2314 20.7312 11.5535 
6.172 20.4912 12.2743 
-10.4002 21.4923 12.6289 
-6.4373 23.1222 12.7182 
-5.9055 23.434 13.0678 
-3.8531 23.6766 12.6887 
-3.0642 24.1149 13.4877 
-3.8725 23.264 11.9086 
-2.5299 23.4095 12.0718 
0.4546 23.0693 12.2525 
1.2772 23.1295 12.8134 
0.6722 23.6661 13.4853 
1.0869 21.8894 10.5738 
2.8807 22.8487 13.408 
2.4376 22.7259 12.8566 
2.2868 23.0828 13.4188 
-4.1862 23.7959 13.0066 
-3.5988 24.0695 13.4734 
-11.9381 -20.7312 13.0764 
-11.2528 -20.5618 12.1325 
-12.0463 -20.934 13.7807 
-8.8133 -21.3364 13.276 
-8.0819 -21.4789 13.4944 
-8.8229 -21.7085 14.3565 
-7.9517 -21.9308 14.8927 
-6.666 -22.0815 15.1774 
-5.8421 -21.7169 13.9643 
-6.3939 -21.8649 14.4278 
-4.5947 -21.5294 13.4832 
-3.79 -21.3633 13.1678 
-3.5786 -21.771 14.2299 
-2.2251 -21.7777 14.4121 
-1.9303 -21.414 13.5676 
-0.9619 -21.9657 15.0958 
0.2858 -21.3946 13.9047 
1.2116 -21.0293 13.2155 
2.5306 -20.8256 12.9458 
3.4488 -20.7446 12.8853 
5.1672 -20.9014 13.631 
4.0545 -20.9331 13.4333 
6.9076 -20.8201 14.2143 
6.1865 -21.1884 14.8009 
-15.0038 -19.4369 13.0053 
-15.7046 -18.9802 12.9625 
-14.3476 -19.5729 12.5204 
-13.9796 -19.9835 13.2671 
-13.5574 -19.9083 12.5289 
-13.1177 -20.479 13.6309 
-12.6963 -20.5354 13.2771 
-12.1865 -20.4141 12.415 
5.3067 -20.2845 12.1783 
8.683 -20.0417 13.4639 
7.7624 -20.3004 13.397 
7.9569 -19.982 12.7234 
10.3906 -18.8759 12.3811 
9.8817 -19.7015 13.7758 
10.9917 -19.2571 13.9264 
-16.0613 -18.5687 12.6551 
-17.482 -17.3935 12.9962 
-16.5603 -18.592 14.0286 
-16.0164 -19.0294 13.8876 
11.1281 -18.2229 11.8588 
13.6034 -16.9342 12.9153 
12.7452 -17.5873 12.806 
13.1296 -16.9971 12.3378 
13.4506 -17.4596 13.7077 
-18.1495 -16.8812 13.5546 
-17.6754 -16.9962 12.4795 
-17.8254 -17.3284 13.8993 
12.8752 -16.6646 11.3298 
15.0223 -16.0835 13.5877 
15.2748 -15.5744 13.2179 
15.6012 -15.4723 13.614 
-20.1517 -15.052 14.0156 
-19.7695 -15.0791 13.0936 
-19.1635 -16.0054 14.0203 
14.218 -16.2161 12.5772 
15.7596 -14.9275 13.1243 
15.9858 -15.1256 13.7902 
-19.8757 -14.1649 11.3123 
-20.527 -14.1241 12.6254 
16.1243 -14.1862 12.8471 
-23.1525 -11.4985 13.5148 
-22.6849 -12.1762 13.5638 
-23.2466 -11.8544 14.3494 
-21.8077 -12.8487 12.8622 
17.416 -11.3148 12.5037 
17.4831 -12.058 13.2294 
17.1062 -12.015 12.4947 
17.8697 -11.973 13.9134 
17.888 -10.7986 13.0237 
-24.2947 -10.1537 14.1781 
-24.4415 -9.3782 13.4538 
-23.7726 -10.5327 13.424 
-22.7643 -11.4209 12.4579 
-23.3961 -10.4933 12.4826 
-22.8899 -10.851 11.912 
-23.7174 -9.9526 12.4621 
-23.4509 -9.9867 11.9783 
-23.0996 -10.3508 11.715 
18.4376 -8.4984 12.7108 
18.0698 -8.341 11.9297 
-25.1842 -7.5471 13.29 
-24.8411 -7.5579 12.4849 
-25.338 -7.9776 14.0858 
-25.0901 -8.1858 13.6617 
18.8386 -6.9105 12.8518 
18.94 -7.9914 13.4488 
19.5535 -7.8458 14.6145 
19.7704 -6.8566 14.626 
19.516 -6.4653 14.0046 
19.8074 -5.6779 14.3737 
-25.6644 -6.3813 13.7949 
-25.7056 -7.2368 14.482 
-25.9892 -6.7207 14.918 
19.4052 -3.77 13.6567 
19.6635 -3.7618 14.1 
19.5543 -4.2514 13.817 
19.9807 -4.9015 14.5299 
-26.0839 -4.3452 14.4519 
-25.8424 -4.7494 13.8692 
-26.1059 -4.9491 14.6805 
19.4074 -3.3315 13.7101 
19.9298 -3.4894 14.6599 
-25.4185 -2.4625 12.6114 
-25.6557 -2.1005 13.2313 
19.8538 -2.5107 14.5725 
19.3119 -2.2722 13.6272 
-25.6398 -1.1694 13.4777 
-25.8346 -0.3783 14.1321 
-25.3469 0.2058 13.2141 
-24.9725 0.3223 12.3655 
19.7675 -1.1353 14.5064 
18.8278 -0.526 13.0069 
19.4749 -0.1801 14.1614 
-25.1163 1.4284 13.0916 
-25.0068 0.7979 12.7462 
-25.4697 0.7298 13.7108 
19.0986 0.3346 13.5965 
18.9291 1.2676 13.4813 
19.6058 1.8086 14.8312 
-25.2257 2.6574 13.3594 
-24.7796 1.9397 12.4439 
18.8853 2.8857 13.7934 
18.6423 1.7507 13.0869 
18.5422 2.4204 13.0651 
19.4708 3.0816 14.9474 
-25.4872 3.7633 13.604 
18.7419 3.6562 13.7062 
19.113 4.1866 14.6165 
18.7807 5.0993 14.3319 
19.0393 5.1895 14.8319 
-25.9434 4.0415 14.7253 
-25.7843 4.832 13.8466 
18.3027 5.7683 13.6598 
18.5544 4.5177 13.6387 
18.936 6.0322 15.0277 
-26.5543 7.1112 15.0986 
-26.295 5.1638 15.2107 
18.2665 6.8215 14.0254 
18.504 7.446 14.833 
18.6201 6.3444 14.5167 
-26.5011 8.3298 14.2795 
-26.4667 7.5268 14.5732 
16.995 8.9176 12.6619 
17.5177 8.9876 13.75 
-26.4674 9.5195 13.9436 
-26.5279 10.4383 14.585 
-26.0923 9.7527 12.6998 
17.3501 10.0154 14.1208 
-26.3106 10.9147 14.1299 
16.0733 11.7075 12.9088 
15.3187 12.6918 12.3175 
-25.5763 11.6707 12.4842 
-24.3967 13.8121 11.9063 
-25.0564 13.6961 13.4083 
15.7894 12.7218 13.2619 
15.9908 13.4444 14.3915 
15.7001 13.2196 13.601 
15.4145 14.0898 14.0316 
-25.5836 12.8223 13.7769 
-25.4496 12.3845 12.8632 
-25.8388 11.939 13.5546 
-25.0928 14.0175 14.0126 
-24.6269 14.7126 13.7646 
-24.766 14.2905 13.4996 
13.5213 14.805 11.6173 
13.9788 14.2411 11.6147 
14.9938 13.988 13.1162 
-24.5138 14.2046 12.7193 
-23.494 16.9932 15.2966 
-23.5062 16.4755 14.3342 
-23.9168 16.4169 15.1122 
13.8342 14.7799 12.0914 
13.538 15.5716 12.7774 
14.1041 14.9517 12.7746 
-22.3691 16.6107 12.5104 
12.0123 16.5604 12.1891 
13.1888 16 12.9582 
13.1842 16.3354 13.5034 
13.7506 15.7392 13.4084 
-22.5122 17.5401 14.5771 
-21.9883 17.8579 14.4001 
-22.7713 17.1508 14.1691 
-21.4983 16.8599 11.6021 
-21.8315 17.299 12.9651 
-18.9284 19.1306 12.9058 
11.0655 17.9605 13.6179 
11.9061 17.6896 14.2407 
12.0416 17.1636 13.3652 
-19.6129 19.2666 13.7569 
-18.6725 18.6886 11.7847 
-17.9165 20.1189 14.3323 
-16.6831 20.4089 14.2577 
-17.4718 19.9931 13.797 
-16.309 19.9846 13.2181 
-14.3588 20.3473 13.0735 
-13.5552 19.9662 12.0599 
7.3767 19.8757 12.6499 
8.0122 19.9325 13.6046 
8.5534 19.2616 12.9725 
-16.6945 20.9316 15.343 
-15.3856 20.8084 14.4016 
-15.2194 20.2495 13.2864 
-14.0579 21.2511 14.5448 
-11.8241 21.4669 13.6097 
-13.0683 21.6546 14.7156 
-10.952 21.88 13.714 
2.7044 22.061 11.9058 
5.7446 21.279 13.2154 
4.9377 22.1364 13.8289 
5.6412 21.8147 14.1277 
6.1989 20.754 12.8158 
-11.8222 21.9273 14.4274 
-10.6091 22.2151 14.0779 
-8.4356 22.4524 12.8252 
-9.2479 22.8282 14.1741 
-5.3111 23.9154 13.7282 
-5.9389 24.0556 14.3782 
-5.2105 24.2901 14.5118 
-4.7366 23.3032 12.2551 
-1.3722 23.6247 12.6053 
-2.0126 23.7898 12.8312 
-0.6006 23.8956 13.357 
-1.0314 23.2707 12.0433 
1.415 23.6823 13.9299 
1.2025 24.0061 14.4207 
1.9984 22.7288 12.5627 
4.3351 21.9711 12.8281 
4.3715 21.2189 11.534 
-6.932 24.0005 14.8827 
-6.3542 23.7271 13.9595 
-7.6604 23.3585 14.0423 
-3.8441 24.3412 14.0943 
-1.6003 24.1527 13.63 
-0.2721 23.6041 12.9382 
-0.0095 24.1347 14.064 
-13.1388 -20.802 14.6655 
-13.0173 -21.0818 15.5408 
-14.2003 -20.4832 15.2857 
-13.5823 -20.5359 14.4836 
-14.2695 -20.0537 13.9311 
-13.0676 -20.6441 14.0566 
-12.1238 -21.1793 14.6556 
-11.6321 -21.1678 14.1816 
-9.6462 -21.8681 15.2852 
-9.4064 -21.6112 14.2854 
-7.2703 -22.3648 16.3098 
-8.1905 -22.1788 15.7888 
-5.8474 -22.2601 15.6999 
-6.552 -22.4786 16.5956 
-4.7414 -21.8054 14.244 
-4.0407 -22.0828 15.1068 
-2.9282 -22.1356 15.335 
-1.8876 -22.4049 16.2579 
-1.7796 -22.0351 15.1743 
0.6028 -21.9887 15.4126 
-0.7824 -21.5212 14.027 
2.0334 -21.8811 15.3792 
3.232 -21.5569 14.7697 
2.76 -22.0911 16.0791 
3.7346 -21.732 15.291 
4.4754 -21.7086 15.4612 
4.0848 -22.0103 16.1711 
5.4163 -21.5602 15.4309 
6.1811 -21.5078 15.6476 
7.2657 -21.0614 15.0828 
8.9595 -20.2913 14.3485 
8.0845 -20.5783 14.3733 
8.6091 -20.6946 15.1299 
9.5879 -20.6449 15.975 
-15.4429 -19.7651 14.9699 
-15.5259 -19.4688 14.0655 
-14.8503 -19.8148 13.9133 
-14.5052 -20.0949 14.3154 
-14.6329 -20.2211 15.0109 
12.0652 -18.8686 14.318 
12.0869 -19.1825 15.0735 
10.8194 -19.7355 14.9024 
-17.3403 -17.788 13.729 
11.1931 -18.7288 12.9669 
12.2161 -18.0458 12.8237 
12.141 -18.4901 13.5817 
13.8215 -17.541 14.3933 
14.064 -16.9198 13.5355 
14.3845 -17.1733 14.5045 
-18.5146 -16.8291 14.5982 
-20.2958 -15.362 15.3703 
14.2894 -16.5341 13.2317 
14.4911 -16.9247 14.2041 
15.2328 -16.678 14.9217 
15.5257 -16.0422 14.3802 
15.7751 -16.2929 15.1784 
-20.2588 -15.2132 14.7843 
-21.3653 -14.3232 15.1841 
-20.937 -14.1497 13.6768 
15.9235 -15.6796 14.4803 
16.8763 -14.0328 14.0109 
16.6414 -13.8253 13.3527 
17.1644 -13.2823 13.7607 
-22.0215 -13.2686 14.2384 
-21.8525 -13.688 14.79 
-21.4698 -13.3713 13.1284 
17.6732 -13.3103 14.7915 
17.6644 -12.8446 14.2843 
18.1439 -12.4777 14.8803 
18.2705 -12.6324 15.3222 
17.309 -14.1074 14.9701 
-21.9423 -12.9715 13.3658 
17.1126 -12.8215 13.2216 
-23.6604 -11.199 14.2539 
19.0855 -10.3718 15.1309 
19.4182 -10.54 15.9314 
19.7943 -9.9629 16.3489 
19.9575 -10.4614 17.1029 
-25.6628 -8.1578 15.1517 
-26.2203 -7.4781 16.1871 
-25.8021 -7.736 15.0723 
-24.884 -8.9911 14.096 
-25.2897 -8.4614 14.4689 
19.6553 -8.4277 15.1089 
18.9525 -9.2712 14.1143 
-24.8209 -8.0038 12.8029 
-25.1226 -9.2958 15.1163 
18.3262 -10.0268 13.3487 
-26.383 -6.5318 15.9865 
-26.4886 -5.6757 15.936 
20.1437 -6.6625 15.346 
-26.2176 -4.4443 14.8109 
-26.3948 -4.5888 15.3448 
20.2178 -5.1492 15.0593 
20.3083 -4.4638 15.1543 
20.8356 -4.8994 16.2364 
20.6012 -3.8955 15.6617 
-26.5245 -3.5935 15.2855 
20.4123 -3.6185 15.3396 
21.1912 -4.1558 16.849 
21.0802 -3.3379 16.5302 
20.049 -2.6794 14.8991 
20.1458 -1.7831 15.092 
20.5016 -2.711 15.5626 
20.1632 -0.2081 15.4223 
20.5068 -0.1124 16.0838 
20.3347 -1.0116 15.5874 
-26.1237 0.0685 14.9601 
-26.4856 -0.605 15.7062 
-26.2876 0.6741 15.5596 
19.7819 1.102 14.9862 
20.5976 -2.0911 15.9164 
-26.0547 0.544 15.0726 
-25.7774 0.9557 14.6906 
-25.7369 0.5077 14.2675 
20.2585 0.6736 15.7695 
20.1459 1.784 15.8372 
-25.8661 2.9874 14.8527 
-26.0635 2.2082 15.4114 
-26.2664 3.1577 15.9202 
20.0039 2.5104 15.7907 
20.3511 2.2355 16.3943 
-26.6089 1.5409 16.7524 
-26.3824 2.0473 16.1124 
-26.4304 1.4374 16.0463 
19.5666 4.2794 15.5692 
19.8666 3.0855 15.7452 
-26.4313 4.4319 15.9822 
19.4031 5.7875 15.8752 
-26.5487 7.7393 14.8894 
18.9595 7.1031 15.6134 
19.5125 6.9387 16.7018 
19.4746 7.6872 17.0738 
-26.7222 9.2014 14.8189 
-27.0403 9.1984 16.0564 
-26.7056 10.0834 14.9886 
-26.7415 8.2621 15.164 
18.1708 8.458 14.7478 
18.3319 9.2192 15.6038 
18.9212 8.0749 16.1103 
-26.6991 7.1833 15.7055 
-27.049 8.2198 16.3808 
17.185 11.0527 14.5667 
16.8491 10.9225 13.7781 
17.7416 10.2473 15.0989 
-26.6526 10.7842 15.2899 
-26.8264 10.2373 15.6494 
-26.7527 11.2612 16.1663 
-25.8548 11.1568 12.8681 
-26.1811 11.3609 14.1504 
16.726 11.9616 14.4236 
16.532 13.129 15.1795 
17.0619 12.0238 15.1955 
18.2406 10.0498 16.0226 
17.8075 10.9604 15.8394 
-26.0424 12.9647 15.4582 
-25.768 13.2876 14.9547 
-25.9986 12.4912 14.7165 
16.1965 12.7524 14.0814 
-24.4661 14.7306 13.38 
-24.9342 15.0771 15.2398 
14.5744 14.2614 12.6844 
14.8579 14.4282 13.4267 
15.434 14.5826 14.6753 
-25.3979 14.4136 15.5354 
-23.7361 16.0191 13.9883 
-22.8975 16.6635 13.4951 
13.956 15.3532 13.1616 
14.876 14.9128 14.0914 
15.9582 14.1512 15.1552 
-23.7476 16.9584 15.7722 
-23.2856 17.4869 15.9605 
-22.1018 17.3803 13.5516 
12.7658 16.7507 13.6287 
13.8293 16.1791 14.2546 
14.6012 15.4702 14.377 
14.5506 15.8436 14.8922 
-20.9252 17.9267 12.8126 
-20.7183 18.857 14.4447 
-20.8261 19.0916 15.1545 
-20.1668 19.2048 14.2222 
9.6106 19.0605 13.9801 
11.1134 18.3971 14.629 
12.6242 17.1128 14.1063 
12.846 17.3895 14.9877 
13.6126 16.7533 14.9699 
-21.4265 18.4839 14.8834 
-20.7049 19.5012 16.0352 
-20.2265 18.912 13.7339 
-19.3092 19.8693 14.888 
-17.5671 20.7371 15.4682 
6.9558 20.8063 13.9275 
9.3522 19.6828 14.9629 
10.4834 19.1162 15.3363 
-18.803 20.3443 15.5368 
-18.2197 20.9056 16.3522 
-16.0525 21.4688 16.0971 
-17.1119 21.1384 16.0528 
-15.0965 21.5 15.5893 
-14.1729 21.8791 15.823 
-12.7482 22.0478 15.2744 
7.0408 21.0943 14.6154 
6.5546 21.8222 15.377 
5.6147 22.6194 15.6414 
-13.39 22.2633 16.1131 
-12.186 22.4617 15.7021 
-10.933 22.9619 15.7587 
-8.1585 23.5683 14.8259 
-8.0451 24.3755 16.5198 
2.8177 23.346 14.3146 
1.9335 23.9391 14.7949 
3.6049 22.6494 13.524 
4.9782 22.4008 14.3673 
-9.1468 23.0965 14.6225 
-9.9584 23.3568 15.8081 
-8.7866 23.6124 15.3958 
-9.3098 23.8963 16.4333 
-6.3534 24.278 15.0744 
-5.9446 24.8913 16.2627 
-5.8364 24.3637 14.989 
-3.1171 24.4047 14.108 
-3.6355 24.8438 15.2205 
-2.8686 25.0422 15.5107 
-1.7787 24.7245 14.7977 
-1.3431 24.9624 15.3684 
-0.2641 25.5304 16.8807 
0.29 25.153 16.3168 
-0.4528 25.329 16.3787 
3.333 23.6206 15.1977 
2.8412 23.9729 15.5598 
3.9167 23.6064 15.5464 
3.2935 24.0265 16.0283 
-3.184 25.3127 16.1468 
-4.0815 24.9864 15.6469 
-4.0662 25.3181 16.3955 
-8.0585 -22.4513 16.9012 
-9.0397 -22.5992 18.0024 
-8.7944 -22.1827 16.0355 
-8.8919 -21.8514 14.8573 
-5.6817 -22.5137 16.6201 
-4.9013 -22.115 15.1934 
-4.5251 -22.388 16.0763 
-3.4565 -22.5102 16.4964 
-2.6561 -22.4199 16.1649 
-2.4133 -22.7653 17.4246 
-0.8769 -22.407 16.3787 
-0.5167 -22.6913 17.2942 
-1.5006 -22.6819 17.1912 
0.156 -22.4525 16.615 
0.1496 -22.2523 16.0633 
0.8423 -22.5414 17.0136 
1.329 -22.2094 16.142 
3.9039 -22.2684 16.8423 
3.384 -22.1733 16.4359 
-13.8861 -20.9103 16.4725 
-13.246 -21.2287 16.5073 
-13.5503 -21.279 17.5842 
-9.4973 -22.2554 16.7469 
-7.0245 -22.5857 17.0984 
-3.8527 -22.3293 15.8788 
-0.7374 -22.1786 15.7434 
1.9265 -22.6152 17.4387 
4.9969 -22.004 16.4999 
5.6867 -21.8197 16.2549 
5.9435 -22.0942 17.2114 
7.9323 -21.2401 16.0877 
7.974 -21.5267 16.9635 
6.9349 -21.4891 16.0389 
8.7371 -21.6393 17.9838 
8.9601 -21.2531 17.1044 
10.1358 -20.509 16.2318 
9.8008 -20.9391 17.0834 
10.4649 -20.5941 16.8168 
-15.5656 -19.9078 15.929 
-16.1125 -19.548 16.2717 
-16.0907 -19.2052 14.7006 
-14.812 -20.3648 15.9202 
10.7662 -20.1553 15.9698 
10.0459 -20.317 15.5307 
11.8105 -19.5322 15.6082 
13.1671 -18.1189 14.702 
13.8378 -18.0191 15.4659 
14.5978 -17.8398 16.2552 
13.8455 -18.4361 16.488 
-17.0335 -18.3347 14.6503 
-17.4504 -18.2407 15.8964 
-17.9773 -17.5862 15.3269 
-16.613 -18.9661 15.5738 
-17.0259 -18.8077 16.6485 
12.6535 -18.7649 15.1433 
14.9029 -17.3015 15.5745 
15.4547 -17.0257 15.9632 
-18.6233 -17.0476 15.7359 
-20.2476 -15.6386 16.1644 
-18.466 -17.4389 16.7298 
14.3254 -17.6231 15.3495 
16.7031 -16.1303 16.6674 
16.1551 -16.4503 16.1383 
17.019 -14.8753 15.3748 
-21.0288 -14.7823 15.6026 
-20.7758 -15.1661 16.1427 
16.2282 -15.6326 14.9168 
16.4647 -15.1276 14.6591 
16.428 -14.5323 13.7798 
18.0833 -14.407 16.9087 
17.5155 -14.917 16.3487 
18.2082 -13.5136 16.1271 
-22.6153 -13.1567 15.5679 
-21.5254 -14.5567 16.4456 
-22.1198 -13.8114 15.8857 
17.2744 -14.9814 15.985 
17.8095 -13.7068 15.5033 
-24.2226 -11.4266 16.3477 
-24.6381 -11.0229 16.8443 
-24.6395 -10.5445 15.807 
-23.9256 -11.4459 15.497 
-23.1464 -12.3847 15.2521 
19.0047 -11.6156 15.9079 
19.3458 -11.4687 16.5592 
18.7455 -12.6727 16.3791 
19.7949 -11.6719 17.7707 
-24.6517 -10.2216 15.2466 
-23.3697 -11.9055 14.8097 
18.8588 -11.3175 15.3463 
-25.5609 -8.8423 15.656 
-25.2328 -9.7642 16.1135 
-25.3585 -9.8451 16.7204 
-25.6876 -9.1973 16.6534 
20.4397 -9.7277 17.6476 
20.3334 -7.8554 16.2383 
20.0943 -8.8017 16.2728 
20.9002 -7.3936 17.2718 
20.5772 -8.2228 17.0216 
-26.8336 -4.9825 16.8636 
-26.7202 -6.0966 16.804 
-27.0683 -5.8063 17.9548 
20.2634 -7.3443 15.8583 
20.7459 -5.94 16.3368 
21.4862 -5.9994 18.0303 
21.3896 -4.672 17.3596 
21.4444 -5.2343 17.6438 
-26.8043 -3.6219 16.3524 
-26.3645 -4.9977 15.4247 
-26.3121 -3.6831 14.7534 
21.1297 -1.3977 17.1759 
21.4175 -2.397 17.4896 
21.027 -2.1908 16.7284 
-27.2803 -4.3688 18.3463 
-27.1872 -3.7224 17.7197 
-27.2443 -5.3309 18.482 
-26.499 -2.4345 15.3272 
-27.0529 -2.6219 16.9739 
20.7467 -1.2303 16.4138 
-26.9756 -1.3757 16.9691 
-26.6558 0.3262 16.4334 
20.8734 0.1445 16.9096 
21.259 -0.1079 17.6576 
21.3443 1.3694 18.2283 
-27.0958 0.676 17.742 
-26.8375 1.0849 17.1636 
-26.7555 0.7201 16.8837 
20.5577 1.145 16.5023 
21.2643 2.4394 18.4202 
20.8989 1.5823 17.3653 
20.8673 3.4094 17.9379 
20.5989 2.8425 17.145 
-26.5603 3.1528 16.7395 
-27.0381 6.1328 17.3791 
-27.0097 4.3544 17.8422 
-27.3005 5.8208 18.4378 
20.38 4.937 17.585 
20.2325 5.8139 17.6702 
20.6571 5.5616 18.5096 
20.0572 4.2743 16.5885 
20.5152 3.9023 17.4027 
20.2817 3.0214 16.5474 
-26.7091 6.1286 16.1562 
-26.7091 4.5053 16.8267 
19.7162 6.1602 16.7537 
19.8364 5.0898 16.4935 
19.9391 6.6547 17.4326 
-27.4628 6.8106 18.8435 
-27.3753 7.4879 18.2834 
18.6616 8.7452 15.9721 
19.0718 9.0774 17.1477 
18.7913 9.586 16.9043 
-27.2768 8.4651 17.2708 
-27.1824 7.6805 17.4219 
-27.3702 8.1508 17.9426 
17.8617 9.5129 14.7854 
-27.2816 9.1742 17.1019 
-27.1745 8.5949 16.7202 
17.3753 12.0859 15.9529 
17.5801 10.927 15.2899 
17.6638 12.553 17.0385 
18.1685 11.641 17.2691 
-25.8069 13.6121 15.5954 
-26.2525 13.2815 16.7143 
-25.6843 14.53 16.6702 
17.0259 12.9357 16.0488 
-26.0483 14.1188 17.307 
-25.4738 15.2866 17.3364 
17.1059 14.2519 17.638 
16.8675 13.9034 16.747 
16.3441 14.5734 16.4749 
-25.0698 15.3659 16.1687 
-24.4884 15.6479 15.0724 
15.7414 15.7168 16.882 
15.3871 15.3279 15.6233 
15.1671 16.2582 16.7148 
16.135 15.2294 16.9286 
16.5181 15.2743 17.764 
-24.1378 17.078 17.0139 
-23.6468 17.2741 16.2464 
-24.1846 16.7033 16.289 
-23.1695 17.3221 15.3575 
13.6393 17.1755 15.7919 
14.4205 16.3952 15.6268 
14.864 16.0106 15.7348 
-22.7962 18.2262 16.711 
-23.2096 17.9022 16.7896 
-22.8149 18.3782 17.1441 
-22.1641 18.03 15.0765 
-22.5233 18.3377 16.4611 
-21.6825 18.7563 16.0136 
11.6595 18.4394 15.5259 
12.2733 18.0324 15.5221 
12.8982 18.0844 16.5802 
13.925 17.7719 17.548 
13.5237 17.54 16.4029 
-20.1092 19.9084 15.8907 
-19.4256 20.4763 16.4595 
8.4326 20.5516 15.4998 
9.7196 20.2688 16.8027 
10.0846 19.6373 15.9032 
10.9482 19.1729 16.1128 
12.2609 18.5167 16.5589 
-19.9182 20.4013 16.8375 
-19.5922 20.7219 17.2575 
-16.1856 21.8066 16.8921 
-16.8941 21.6496 17.0284 
-15.2917 21.8539 16.4577 
-14.6725 22.3413 17.0961 
7.619 21.205 15.6807 
8.7068 20.8395 16.5645 
-15.816 22.4818 18.2143 
-15.5117 22.237 17.4211 
-16.5182 22.1233 17.9088 
-13.422 22.801 17.2593 
-12.1634 23.0552 16.9001 
-11.1979 23.1886 16.4558 
3.8286 23.9824 16.2514 
3.2527 24.4707 16.9369 
7.3182 21.7244 16.3296 
6.437 22.3975 16.3663 
-11.6186 23.6501 17.7704 
-10.6275 23.6131 16.8902 
-11.5485 23.4231 17.2161 
-7.2059 24.8186 16.9309 
-7.6394 25.0295 17.7559 
-4.5051 25.0286 15.8285 
-5.3062 24.733 15.5602 
-5.5337 25.3138 17.0101 
-4.433 24.7042 15.0923 
-2.2416 25.0535 15.481 
-0.8413 25.1946 15.9873 
-1.6464 25.3052 16.0756 
-0.9943 25.6112 16.8902 
-0.6099 25.8718 17.5571 
-0.5735 26.2971 18.5851 
0.5206 25.7179 17.6347 
1.3003 25.7036 18.0231 
1.2825 26.0292 18.7987 
2.623 24.5706 16.6418 
3.1348 24.7683 17.4947 
-6.2261 25.686 18.4026 
-6.6864 26.0471 19.6614 
-5.0057 26.2733 19.2016 
-4.7314 25.5174 17.0739 
-3.978 25.6896 17.2388 
-2.2084 25.4114 16.2849 
-2.7753 25.3458 16.172 
-1.9709 25.6647 16.8685 
1.167 25.3835 17.3052 
-9.4098 -22.7054 18.7704 
-9.9327 -22.5099 18.2358 
-11.0114 -21.9485 16.593 
-6.8282 -23.1092 19.4348 
-6.8721 -22.8734 18.3346 
-6.0708 -23.0513 18.9252 
-6.1534 -23.2783 19.9537 
-4.0261 -23.044 18.5169 
-4.6358 -23.1373 18.9501 
-5.7299 -22.8567 17.9928 
-2.0544 -23.1894 18.9895 
-3.5252 -22.7586 17.3957 
-1.2668 -23.06 18.5282 
-0.0181 -23.0835 18.6851 
0.1118 -23.3004 19.502 
0.6051 -22.8953 18.1054 
1.4204 -23.1394 19.0696 
3.7839 -22.8329 18.5545 
3.2192 -23.0035 18.9666 
3.2477 -22.7556 18.1643 
4.0781 -22.5755 17.8483 
4.9439 -22.7014 18.555 
5.9975 -22.3818 18.1277 
6.7966 -22.2934 18.3599 
5.6668 -22.7035 19.014 
6.5902 -22.0347 17.3948 
-14.5596 -20.8345 17.7476 
-15.4048 -20.4767 18.5066 
-15.3183 -20.4294 17.7405 
-12.7276 -21.5565 16.9801 
-13.1437 -21.5827 18.0513 
-12.4411 -21.8998 18.1652 
-12.3474 -21.788 17.4605 
-11.5442 -22.0748 17.7634 
-10.3383 -21.9116 15.886 
5.1839 -22.4016 17.7565 
6.1833 -21.815 16.4905 
7.7584 -22.1053 18.4976 
7.9274 -21.8439 17.8447 
8.5308 -22.0265 19.0169 
9.5837 -21.3693 18.1039 
9.1914 -21.7346 18.7929 
11.7022 -20.3352 17.7206 
11.4033 -20.6363 18.2661 
-15.8021 -20.045 17.5707 
-16.0885 -19.6732 16.8545 
-15.3172 -20.334 17.099 
-15.5128 -20.0617 16.4955 
11.9308 -19.9005 16.7948 
12.5624 -19.9264 17.7677 
12.367 -19.5112 16.3423 
12.8113 -19.0287 16.0071 
12.8814 -19.4671 17.0323 
13.633 -18.9526 17.2561 
13.2134 -19.054 16.7721 
-18.1595 -17.8565 17.3442 
-16.6277 -19.1847 16.6672 
-16.7219 -19.2112 17.3094 
15.1539 -17.5572 16.5309 
15.8155 -17.1656 16.9133 
15.1396 -17.9256 17.3603 
-18.9653 -17.0767 17.275 
-20.301 -15.8734 17.3272 
-18.7059 -17.405 17.7245 
-19.0622 -17.2367 18.6856 
16.4246 -16.7222 17.1837 
16.9849 -17.0434 18.874 
16.2779 -17.3715 18.1468 
17.1644 -15.7238 16.8415 
17.5917 -15.3725 17.1846 
17.3346 -15.9469 17.5922 
16.7073 -16.5307 17.3241 
-22.1948 -14.2021 17.516 
-21.4978 -14.8238 17.4022 
-20.7305 -15.4326 17.0734 
-22.6139 -13.5746 16.7491 
-22.7985 -13.2135 16.3004 
19.2746 -12.6705 17.5497 
19.0766 -13.5577 18.048 
18.5676 -13.4324 16.7811 
19.5929 -13.22 18.8934 
20.1731 -11.7809 18.7649 
-24.5061 -11.7567 18.2595 
-25.1054 -11.0618 18.7687 
-24.4182 -11.6438 17.5734 
-23.1971 -13.1228 17.34 
-23.7345 -12.6912 17.9935 
-23.3897 -12.7916 16.977 
-25.7607 -9.3265 17.2505 
-25.6746 -9.8828 18.1499 
-24.9953 -10.7035 17.3663 
-25.0352 -10.1958 16.3304 
20.9133 -9.0519 18.3113 
20.2581 -10.6828 17.9551 
21.4548 -8.9139 19.5461 
20.4942 -9.0147 17.3274 
20.9527 -8.4025 17.9606 
-26.8793 -6.4451 17.5883 
-26.9373 -6.8753 18.0863 
-27.182 -6.392 18.6903 
-26.7098 -7.6744 18.1992 
-26.368 -8.0623 17.3566 
-26.553 -7.3278 17.1306 
-26.1822 -8.2679 16.8855 
21.6438 -7.4384 19.0972 
21.0605 -7.9534 17.9818 
21.5137 -6.8292 18.4274 
-27.5373 -5.5693 19.6923 
-27.3931 -6.205 19.4209 
21.9585 -4.8177 18.7094 
22.5212 -4.6758 20.0216 
-27.4093 -4.9416 18.9926 
-27.4233 -4.0349 18.8999 
22.3448 -2.7615 19.4833 
22.1008 -2.8265 18.8799 
22.0489 -2.193 19.0362 
-27.3754 -3.6344 18.6286 
-27.4006 -3.3242 18.668 
21.9147 -2.6456 18.4801 
21.8948 -1.5499 18.8407 
-27.0478 -0.1896 17.4712 
-27.2509 -1.234 17.8391 
-27.6586 -0.7244 19.2542 
-26.9563 -0.6183 17.0834 
21.7788 -0.4777 18.7178 
21.3731 -0.7971 17.7584 
21.6992 0.4261 18.7472 
22.0341 -0.0766 19.4044 
-26.8137 1.5532 17.2231 
-26.7176 1.9482 17.0653 
21.5987 2.1351 19.0575 
-27.2953 3.0951 19.0234 
-27.0023 3.3134 18.0663 
-27.0477 2.3434 18.137 
-26.7169 2.5304 17.2003 
-26.7917 3.4454 17.376 
20.9486 4.3936 18.5968 
-27.395 4.2173 19.1829 
20.3761 6.3443 18.2448 
21.1571 5.5196 19.6545 
20.7421 6.4532 19.183 
-27.7436 5.5356 20.2285 
-27.4941 5.7905 19.1993 
-27.8272 4.238 20.7994 
20.16 6.9888 18.1132 
20.5353 7.2785 19.2589 
20.1262 8.0589 18.8338 
-27.6286 6.7255 19.4727 
19.5155 8.4694 17.7123 
19.8742 7.9029 18.1229 
-27.6401 7.5737 19.3627 
-27.7337 8.1144 19.3773 
-27.4999 8.2476 18.4241 
18.5787 10.6459 17.3049 
19.5033 9.6513 18.5894 
-27.7551 9.1557 19.3499 
-27.4643 10.3433 18.522 
-27.485 9.3741 18.1376 
-26.7223 11.8584 16.6589 
-26.9608 11.8946 17.796 
-26.466 12.4641 16.4253 
19.1084 10.6624 18.5139 
19.9512 9.8695 19.8168 
-27.4764 11.137 19.3019 
-27.1817 12.0254 19.0016 
-27.2998 11.2153 18.5226 
-26.5541 13.1498 17.7792 
-26.8864 13.2532 19.4479 
-26.2702 14.2 18.3277 
17.6226 13.2423 17.6107 
17.9545 12.5844 17.6824 
-25.7045 15.5055 18.5607 
-25.8969 14.8485 18.0105 
-26.2115 14.7893 19.1929 
16.5588 13.795 15.9509 
17.9993 13.2807 18.5641 
17.636 13.784 18.2783 
18.1602 13.7927 19.4851 
-24.7109 16.2717 16.8939 
-24.4122 16.0511 15.5807 
16.6784 15.4692 18.3779 
16.1046 15.9385 17.9311 
-25.4858 16.134 19.1692 
-25.1353 16.6206 19.0438 
-25.1288 16.2059 18.0881 
-24.1319 17.7059 18.5103 
-24.4855 17.0739 17.9837 
-24.3899 17.8034 19.505 
14.5317 16.5624 16.1308 
15.6416 16.2968 17.6425 
-23.7609 17.5841 17.2678 
-23.3876 18.2112 18.0028 
-22.0802 18.8787 17.0314 
11.7478 19.1249 17.1909 
13.6867 18.1351 17.9606 
14.3598 17.0441 16.7668 
14.6186 17.1668 17.4593 
-22.537 19.3375 19.1519 
-21.9045 19.4142 18.1166 
-22.8268 18.7267 18.1052 
-21.6225 19.2374 17.1706 
-20.9248 19.7626 17.1198 
-20.3174 20.5842 17.8812 
-20.4485 19.9944 16.6235 
10.8945 19.6287 17.074 
10.7947 20.0687 17.9803 
11.9998 19.3825 18.2223 
-19.8048 21.1405 18.6261 
-20.2746 20.2317 16.941 
-17.7913 21.8296 18.2549 
-18.689 21.621 18.5803 
-18.27 22.0263 19.2197 
-18.2279 21.397 17.547 
-16.8961 21.8297 17.4426 
7.009 22.3543 17.1542 
9.2097 21.089 17.919 
9.7117 20.6187 17.6051 
-17.0529 22.3513 18.8928 
-15.0808 22.8543 18.5483 
-13.5144 23.1033 17.9814 
-14.6711 22.6532 17.7698 
4.5392 23.5837 16.0931 
5.0284 23.5427 16.682 
4.7047 23.0809 15.3547 
5.4719 23.1961 16.6153 
5.4974 23.5109 17.3003 
6.3646 22.9714 17.4308 
-12.747 23.4603 18.2303 
-13.7535 23.6103 19.3768 
-11.859 23.8401 18.4289 
-10.717 24.2932 18.5321 
-9.5726 24.6782 18.4808 
-9.8224 24.2487 17.6753 
-8.8818 24.5882 17.6854 
-8.5145 24.9443 18.3019 
2.3441 25.0224 17.374 
1.842 24.8773 16.6447 
1.7531 25.5492 18.0335 
4.0773 24.422 17.2809 
3.5156 24.6023 17.3471 
3.9415 24.6292 17.6389 
4.0453 24.0573 16.54 
4.62 24.0869 17.2223 
4.6812 24.655 18.5459 
5.7259 23.9382 18.5321 
4.5881 24.3944 17.8451 
-7.4905 25.2556 18.2415 
-8.1943 25.2425 18.7938 
-7.672 25.5496 19.1011 
-5.694 25.6066 17.8193 
-4.948 25.8315 18.0197 
-3.4539 26.0888 18.0715 
-3.9624 26.3124 18.8524 
-3.1186 26.2771 18.5227 
-3.1318 26.5118 19.1427 
-2.0097 26.3248 18.4711 
-1.0515 26.4964 18.9701 
-1.8529 26.7033 19.4118 
-1.1394 26.9224 20.0961 
-1.219 26.1137 17.9964 
3.0601 25.3123 18.6626 
3.5987 24.9957 18.3916 
-12.6351 -21.9472 18.8705 
-11.7699 -22.2543 19.0846 
-10.3505 -22.585 19.075 
-9.5814 -22.9081 20.0165 
-9.1783 -23.0226 20.3653 
-10.1971 -22.9116 20.8038 
-7.3292 -23.3644 20.9018 
-7.391 -23.2232 20.2282 
-6.7158 -23.4113 20.8446 
-5.5845 -23.3743 20.2669 
-4.3233 -23.3695 19.9594 
-3.7765 -23.2859 19.5321 
-3.2462 -23.1476 18.8773 
-2.5921 -23.3112 19.5034 
-1.3343 -23.3581 19.6659 
-0.4662 -23.545 20.4501 
1.6863 -23.3972 20.0687 
2.5973 -23.2646 19.7673 
3.4142 -23.4801 20.8232 
4.1382 -23.166 19.8881 
4.9725 -23.0267 19.706 
4.9094 -23.404 21.1759 
5.6924 -23.22 20.8774 
6.5363 -22.8518 20.1016 
8.4899 -22.4243 20.3148 
9.503 -22.0787 20.3103 
-15.0764 -20.8718 19.5158 
-16.0237 -20.1944 20.1351 
-15.0779 -20.7159 18.6814 
-13.8616 -21.3355 18.8751 
-13.4025 -21.6658 19.2564 
-13.5573 -21.6339 19.7946 
7.256 -22.4884 19.3619 
10.315 -21.3915 19.0778 
12.2136 -20.3158 18.3737 
11.5695 -20.784 18.952 
12.5906 -20.5206 19.6081 
-16.631 -19.4171 18.0426 
-16.1421 -19.985 19.1608 
-15.9968 -20.0196 18.4017 
13.4128 -19.6528 18.2961 
13.3821 -19.5169 17.9664 
14.9959 -18.513 18.5812 
14.8375 -19.058 19.6771 
14.2001 -18.7014 17.5893 
13.9243 -19.3982 18.6583 
-17.4243 -18.6832 18.0705 
-16.9834 -19.2981 19.4135 
-16.7919 -19.5344 20.0678 
-17.4183 -18.9293 19.7531 
15.588 -17.7017 17.6202 
16.7696 -17.8675 20.2338 
16.0885 -18.2069 19.7563 
16.7668 -17.6428 19.7151 
-20.3273 -16.1027 18.6949 
-18.5317 -17.7427 18.7544 
15.8632 -18.0091 18.8702 
17.8334 -16.163 19.0429 
17.6286 -16.8322 19.8797 
17.2614 -16.3865 18.161 
-20.7182 -15.7197 18.454 
-21.6523 -14.9121 18.5331 
19.3721 -14.489 19.9637 
18.7514 -15.2774 19.6109 
18.944 -14.4977 18.9591 
18.2036 -15.5234 18.7801 
-22.9537 -13.489 17.6258 
-22.9225 -13.6635 18.238 
-22.6107 -14.0516 18.6984 
18.5906 -14.6337 18.3348 
18.3846 -14.4169 17.5153 
19.382 -13.8449 19.1046 
-23.4253 -13.1414 18.3133 
-23.3852 -13.346 18.9417 
20.7193 -11.4386 19.8196 
19.8938 -13.1368 19.5174 
21.0603 -11.0327 20.3016 
21.2714 -10.1116 20.0424 
-24.9796 -10.8644 17.7542 
-25.6388 -10.2956 19.0211 
-25.0434 -11.4015 19.4207 
20.6182 -10.6737 18.855 
-26.2424 -9.4003 19.386 
-26.7724 -8.6302 20.0827 
-26.3845 -8.9569 19.0553 
-26.9372 -7.7534 19.2281 
-26.4844 -9.3725 20.3813 
21.3305 -8.37 18.8866 
21.8945 -7.8129 19.9303 
-27.069 -6.8362 18.6166 
-27.2992 -6.7186 19.479 
22.2808 -5.6248 19.7466 
22.3972 -6.252 20.3378 
22.6821 -6.203 21.0643 
22.8105 -5.0053 20.8888 
22.9806 -5.4284 21.4677 
-27.7357 -5.419 20.4934 
-27.682 -6.0048 20.5624 
-27.9377 -5.5109 21.4483 
-27.7293 -4.3136 20.2204 
-27.9018 -3.5428 20.7511 
22.6277 -2.9975 20.0727 
22.8976 -2.4737 20.9452 
22.8892 -4.0506 20.7644 
23.1142 -3.1216 21.3009 
23.1832 -4.0475 21.5563 
-27.708 -2.6605 19.7876 
-27.5697 -2.5208 19.1579 
-27.518 -3.5033 19.2131 
22.1474 -1.2695 19.4576 
22.5051 -2.0341 20.152 
-27.8944 -1.099 20.033 
-27.9064 -1.6582 19.9615 
-28.1513 -1.5638 21.1882 
21.9845 1.086 19.6376 
22.3305 0.2354 20.1861 
22.4404 -0.9419 20.1985 
22.7625 -0.7159 21.0158 
-27.9166 0.2637 20.2909 
-27.541 0.1696 19.0236 
22.4652 1.0696 20.7682 
-27.7239 1.0618 19.7101 
21.9018 2.6088 19.9721 
21.9203 3.5014 20.4201 
21.6975 3.7277 19.9827 
-27.6907 2.4548 20.2721 
-27.6935 3.4526 20.3756 
21.2022 3.4625 18.7175 
21.4067 4.0465 19.4692 
21.6141 2.9465 19.3799 
21.806 4.4815 20.6659 
-27.715 6.2135 19.8329 
-27.9873 6.3063 20.9806 
20.8675 7.7114 20.352 
20.9563 6.5725 19.7708 
-27.9479 7.0327 20.3215 
-28.1129 7.013 21.0159 
-27.9956 7.4926 20.3561 
19.8905 8.4749 18.5693 
20.5578 8.4851 20.1665 
19.9849 9.3918 19.4913 
-27.9424 10.3433 21.0068 
-28.1022 9.7439 21.4937 
-28.0226 10.8647 21.9751 
19.7596 8.9879 18.6505 
20.391 9.6363 20.6547 
-27.5687 11.286 19.9336 
-27.7482 10.9998 20.5896 
-27.5273 11.816 20.4372 
18.8804 12.0483 19.2831 
18.934 11.4233 18.7873 
18.5275 12.2495 18.6731 
19.6107 10.9404 19.9425 
19.346 11.5932 19.8978 
-27.2211 10.5146 17.5013 
-27.0971 11.0718 17.4909 
-27.039 10.6513 16.8919 
17.9293 13.0708 18.164 
19.5135 12.389 21.1025 
-26.7466 13.9965 20.0841 
-27.2458 13.2843 21.3518 
-26.262 15.074 19.9984 
17.2229 14.6817 18.4375 
18.011 14.9773 20.5878 
18.0072 14.5673 20.0508 
17.3338 15.6369 19.9831 
-25.9377 15.5433 19.5532 
17.1467 15.4154 19.2817 
17.6359 14.4561 19.0753 
-25.3258 16.9641 20.5514 
-24.8275 16.9108 18.6673 
14.8054 17.2722 17.9652 
15.3232 16.9161 18.1913 
16.3613 16.7057 19.7475 
16.7107 15.9226 19.1222 
15.93 16.5961 18.731 
-23.7632 18.3228 19.1692 
-23.1759 18.7698 19.0087 
13.1879 18.6835 18.4477 
14.3406 18.1372 19.0426 
14.8211 17.6346 18.7925 
-21.9432 19.6398 18.824 
-21.4181 19.7575 18.1856 
-20.3924 20.7985 18.6898 
-20.7369 20.6589 19.2032 
-20.358 21.0256 19.2635 
12.1887 19.78 19.4683 
13.0924 19.185 19.4914 
13.9196 18.7278 19.7246 
-21.2916 20.524 20.1442 
-20.8471 20.8939 20.1839 
-21.0922 20.4005 19.4255 
-20.9915 20.2375 18.6806 
-19.1743 21.6426 19.2274 
-19.2478 21.2582 18.2368 
7.7506 22.2603 18.1766 
8.4332 22.157 19.1082 
9.6261 21.2876 19.072 
10.4619 20.5478 18.6273 
-17.164 22.7256 19.9358 
-16.2821 22.8652 19.5307 
-15.3437 23.1863 19.5573 
-14.2397 23.2846 18.9437 
6.3158 23.2394 17.9401 
9.4336 21.7083 19.7714 
8.3926 22.524 19.9144 
-14.7854 23.4733 19.8216 
-14.4824 23.8118 20.4577 
-14.5284 24.2728 21.7525 
-13.518 24.0241 20.2171 
-12.2225 24.1109 19.3495 
-10.8889 24.67 19.614 
-9.5944 25.1542 19.6748 
-8.7325 25.146 18.9324 
4.0359 25.5008 19.8736 
3.8062 25.2199 19.1648 
3.4646 25.6386 19.7427 
6.9041 23.1105 18.6491 
6.408 23.7572 19.2541 
-11.7865 24.878 20.9771 
-10.3651 25.3106 20.8184 
-8.9365 25.6078 20.2779 
-7.7505 26.0489 20.4928 
-6.3913 26.3039 20.1363 
-3.7107 27.0526 20.7247 
-2.451 26.9653 20.141 
-4.3653 26.5926 19.7669 
-0.1307 26.7789 19.9577 
0.5659 26.4121 19.3132 
1.5335 26.4334 19.868 
1.725 26.7435 20.7777 
2.6356 26.4716 20.8874 
4.5857 25.3659 20.0576 
4.3543 25.7924 20.6961 
4.6574 25.0176 19.4538 
5.162 24.9413 19.8939 
-4.9114 26.7118 20.3596 
-5.7422 26.6956 20.8044 
-4.7397 27.059 21.2832 
-1.9789 27.0538 20.4123 
-1.6297 27.392 21.3765 
0.4034 27.2251 21.296 
0.8728 26.7099 20.1837 
-0.5879 27.1873 20.9109 
2.5317 26.0795 19.9021 
0.1531 -23.7444 21.3845 
-1.0711 -23.961 22.4755 
-0.7885 -23.7025 21.1831 
0.8821 -23.808 21.682 
1.1834 -23.6286 20.9526 
-11.7818 -22.4516 20.2456 
-12.048 -22.4822 21.0041 
-12.3954 -22.1397 19.5721 
-11.0886 -22.7583 21.0012 
-10.8385 -22.675 20.1543 
-9.8911 -23.0807 21.4464 
-8.3331 -23.3598 21.6511 
-8.6662 -23.4997 22.9067 
-9.3341 -23.1485 21.2865 
-7.662 -23.6553 23.0248 
-7.1984 -23.5854 22.1394 
-7.1814 -23.702 22.9794 
-6.0258 -23.6245 21.7845 
-5.0834 -23.5453 21.0081 
-4.127 -23.5001 20.5851 
-3.8874 -23.6655 21.3443 
-1.4269 -23.5341 20.4295 
-2.2114 -23.6188 20.8689 
2.482 -23.5546 20.8904 
2.926 -23.8479 22.2748 
2.1491 -23.7292 21.5408 
4.9089 -23.5522 21.7714 
6.5756 -23.1216 21.125 
6.2681 -23.3668 21.924 
8.8195 -22.6342 21.4775 
8.9717 -22.9514 22.9778 
7.9241 -23.0247 21.9635 
10.5525 -21.8589 20.9562 
9.6792 -22.3537 21.5401 
11.1148 -21.89 21.9588 
-14.6699 -21.4987 22.4924 
-14.7404 -21.3894 21.9477 
-14.1775 -21.7287 21.8635 
-13.7567 -21.6337 20.6026 
-14.2739 -21.5509 21.4832 
-14.5724 -21.2564 20.6347 
-13.67 -21.8348 21.1069 
-13.1404 -21.9067 20.1673 
-12.6783 -22.3351 21.6134 
10.6183 -21.4633 19.7148 
11.1717 -21.2107 19.6514 
11.8785 -21.154 20.5456 
11.2841 -21.4393 20.537 
13.4766 -20.1929 19.9833 
12.8177 -20.7563 20.7109 
13.3391 -20.7252 21.6279 
13.9798 -20.0525 20.5758 
-15.1915 -20.8731 20.2502 
13.2352 -19.9738 18.9602 
15.1709 -19.1085 20.5127 
14.9037 -19.4553 21.1105 
14.8029 -19.3031 20.4169 
-17.4929 -18.785 19.2179 
-17.8305 -18.5882 20.1847 
-18.7948 -17.6889 20.2128 
-17.8248 -18.7024 21.2048 
16.7377 -18.5005 22.0183 
15.7705 -18.7586 20.7083 
17.1625 -17.6747 20.666 
17.1143 -17.3707 19.8392 
-19.3361 -17.2245 20.4958 
-20.1096 -16.494 20.05 
17.8303 -15.6911 18.2436 
-22.8037 -14.0908 19.8528 
-21.6169 -15.1066 19.4613 
-22.7569 -14.2771 20.6977 
-20.9129 -15.7367 19.6568 
18.5084 -16.1549 20.6201 
19.2506 -15.3329 20.9744 
19.6953 -13.7026 19.7161 
19.8094 -14.0647 20.5146 
-24.1111 -12.6446 19.5092 
-23.6827 -13.1974 19.8191 
-24.4694 -12.3935 20.2296 
20.4805 -13.5865 21.6534 
19.6702 -14.9173 21.4031 
20.2799 -13.2058 20.6176 
20.8081 -12.0916 20.7409 
-24.4399 -12.0813 18.9637 
-25.1697 -11.5614 20.5641 
-25.1258 -11.9471 21.7839 
-24.5705 -12.5744 21.4717 
21.6764 -10.5609 21.5026 
21.5569 -10.217 20.8568 
21.8685 -10.1537 21.7066 
-26.6327 -9.3182 21.0199 
-26.221 -9.9829 20.78 
-26.4253 -9.8846 21.5026 
21.8169 -9.5312 20.9983 
21.9866 -10.7121 22.5891 
-27.0402 -7.8837 19.8763 
-26.1739 -9.7799 19.9724 
21.9267 -8.6445 20.5772 
22.3307 -7.495 20.8605 
22.6308 -7.6268 21.7597 
-27.455 -6.861 20.3087 
-27.7367 -6.6344 21.3922 
23.278 -4.7262 22.015 
23.0137 -6.1555 21.9318 
-28.0674 -4.5797 21.7535 
-28.0577 -3.0557 21.3295 
23.2964 -1.9084 22.3291 
23.4885 -2.5686 22.4674 
23.1545 -2.4722 21.6733 
-28.2557 -3.1121 22.237 
-28.2128 -2.2593 21.7617 
23.1503 -1.1385 22.0452 
-28.3526 -1.5001 22.2381 
-28.1024 -0.2169 21.007 
23.0925 -0.3183 22.0093 
23.4429 -0.6169 22.9937 
-28.2743 -0.3658 21.7366 
-28.1652 0.8991 21.2944 
22.953 0.5591 21.8646 
22.8383 1.8512 22.0824 
23.2289 1.0875 22.7997 
-28.3965 0.8049 22.2854 
-28.0893 1.7251 21.348 
22.4306 2.5573 21.2961 
22.5826 3.1946 22.0064 
22.6553 1.5709 21.4485 
-28.3572 3.4546 23.2257 
-28.1192 3.8524 22.0307 
-28.3655 2.6719 22.9934 
22.0477 3.7307 20.8683 
-28.0444 4.6472 21.624 
21.5721 5.7484 20.7936 
21.958 5.7123 21.765 
22.1433 4.5309 21.5695 
-28.1202 5.7728 21.8181 
21.4578 6.8999 21.2522 
22.4017 4.8825 22.4206 
22.3287 5.8848 22.8571 
-27.9319 8.3747 20.0309 
-28.0951 7.6172 20.7571 
-28.0989 8.4415 20.9184 
21.4257 8.0328 21.9555 
-28.1914 10.6993 22.9074 
20.2037 10.2625 20.7535 
-27.8308 9.8388 20.0744 
-27.7761 10.5944 20.3224 
19.9732 11.117 20.97 
20.5207 10.9374 22.1264 
20.5039 10.1824 21.3938 
20.274 10.852 21.4349 
-27.483 12.2145 20.8105 
-27.3878 11.9725 19.9003 
18.7141 13.3586 20.2679 
19.1307 13.1864 21.0475 
18.9259 12.8343 20.2015 
19.6031 12.6562 21.613 
-27.2922 12.7429 20.6295 
-26.5158 14.1506 19.2666 
-26.1718 14.5097 18.4565 
18.5023 14.4278 21.0245 
18.4658 13.895 20.3324 
19.1613 13.7633 21.8162 
-26.6884 14.6366 21.1121 
-26.5137 15.2121 21.4758 
-26.2951 15.3274 20.6357 
-24.8291 17.7337 20.7606 
17.7448 15.7209 21.0399 
16.8089 16.2367 19.8385 
16.9969 16.5754 20.7802 
-24.9647 17.6653 21.0819 
-24.6106 17.5745 19.6447 
-24.2735 18.1421 20.1138 
15.4693 17.474 19.5907 
-23.4799 18.8308 19.8842 
-23.9055 18.6585 20.5483 
14.8582 18.2053 20.0779 
15.9116 17.425 20.3234 
-22.3929 19.6183 19.6866 
-22.4485 19.8066 20.4108 
-21.946 20.0966 20.2015 
-21.9259 20.3097 20.8156 
11.2741 20.4949 19.797 
11.5052 20.7937 20.9584 
12.9877 19.6412 20.4109 
14.7951 18.6472 20.9286 
14.6502 18.7886 21.0533 
-19.4062 22.0427 20.6849 
-18.8774 22.4648 21.1864 
-18.5983 22.1245 19.8471 
10.1749 21.322 20.0704 
11.9798 20.8417 21.9028 
11.1873 21.2099 21.5486 
-19.9237 21.9068 21.1828 
-19.483 22.3442 21.719 
-16.6514 23.1441 20.5809 
-16.4186 23.6785 21.8454 
-15.2329 23.5753 20.4637 
8.1405 23.2655 21.2323 
9.0739 22.4258 20.9106 
7.9579 23.0829 20.4518 
9.6596 21.8502 20.5343 
-17.247 23.3265 21.7078 
-16.7403 23.7445 22.3702 
-15.2012 24.03 21.6929 
-12.526 24.6957 21.1364 
-12.4211 24.3585 20.1586 
5.8425 24.5948 20.2037 
6.8607 24.1308 20.9222 
6.178 24.2421 19.9458 
4.7403 25.732 21.2253 
6.024 25.1137 21.7678 
5.5892 25.0175 20.7691 
-13.2074 24.9066 22.3795 
-12.1756 25.1104 21.9848 
-9.8135 26.1083 22.5801 
-8.9544 26.0745 21.5944 
-10.1257 25.6135 21.4318 
-7.0373 26.473 21.1155 
-6.3156 26.8465 21.6561 
3.778 25.8758 20.4449 
3.0137 26.0272 20.2313 
3.8058 26.1318 21.0961 
5.0339 25.2964 20.5043 
-6.8418 26.9118 22.2226 
-6.6534 27.2622 23.1766 
-4.0074 27.2677 21.5065 
-2.4406 27.7049 22.3486 
-3.5544 27.5484 22.1731 
-3.1312 27.9465 23.2433 
-1.0257 27.9673 23.0888 
-1.8189 27.8545 22.7048 
-2.1596 28.3418 24.2961 
-0.5382 27.5552 21.9037 
1.0536 26.9466 20.876 
1.817 26.9904 21.4655 
4.154 26.4456 22.425 
-5.2424 -23.913 23.125 
-5.9942 -23.7797 22.7518 
-4.8043 -23.828 22.4131 
-4.4727 -23.9446 22.8796 
-3.3716 -23.932 22.6119 
-3.6494 -24.1006 23.6764 
-2.6714 -23.8369 21.9547 
-1.2638 -24.1981 23.7705 
-0.1594 -24.1974 23.7362 
-0.31 -24.4284 25.1122 
1.1907 -23.9727 22.4534 
1.9579 -24.0168 22.8619 
2.0731 -24.1315 23.5023 
3.0347 -24.0318 23.2278 
3.9876 -24.0124 23.4708 
4.4191 -23.7975 22.5869 
5.7288 -23.7347 23.1287 
6.493 -23.5508 22.9106 
-12.6053 -22.509 22.6661 
-13.2318 -22.1949 22.0915 
-11.9704 -22.5823 21.5016 
-11.3096 -22.9236 22.6652 
-11.1298 -22.8675 21.8481 
-10.4667 -23.095 22.4287 
-9.5954 -23.3037 22.6104 
-9.918 -23.3905 23.8352 
